ply
format ascii 1.0
element vertex 725
property float x
property float y
property float z
property float nx
property float ny
property float nz
property uchar diffuse_red
property uchar diffuse_green
property uchar diffuse_blue
end_header
-1.09616 -0.513113 -7.23388 0.84003 -0.0536831 0.539878 70 27 19
-0.422177 -0.562823 -7.68085 0.18657 -0.428814 0.883918 93 29 19
-0.423116 -0.551145 -7.6744 0.201545 -0.380871 0.902395 93 29 20
-0.421497 -0.574465 -7.68401 0.337297 -0.43393 0.835426 93 30 19
-0.421497 -0.574465 -7.68401 0.337297 -0.43393 0.835426 93 30 19
0.115478 -0.589894 -7.98382 0.222986 -0.487632 0.844092 87 29 18
0.188936 -0.596466 -7.95358 0.668375 0.10508 0.736365 76 27 19
0.370784 -0.595409 -8.10486 0.0941379 -0.512946 0.853243 80 28 19
0.526837 -0.60946 -8.15478 0.494463 -0.105421 0.862782 74 26 18
2.14729 -0.71241 -8.50645 0.235458 0.745301 0.623768 221 76 55
2.19744 -0.697579 -8.52318 0.0756649 0.830606 0.551696 228 99 62
2.47965 -0.690447 -8.35975 0.411649 0.527227 0.743355 215 79 60
2.59514 -0.723084 -8.37757 0.0664898 0.77127 0.633026 219 72 54
-2.35986 -0.536924 -8.92289 -0.107184 0.855731 0.506198 163 67 45
-0.553887 -0.576081 -7.64825 0.783126 -0.157676 0.601542 89 28 17
-0.449345 -0.58058 -7.62451 0.273564 -0.514386 0.812755 99 29 18
-0.408096 -0.5981 -7.71931 0.745348 -0.256002 0.615564 88 28 17
-0.35973 -0.590317 -7.72774 0.7156 -0.0685727 0.695136 79 28 19
0.0801474 -0.610496 -7.97652 0.0476713 -0.516597 0.854901 95 32 19
0.134436 -0.619844 -7.98783 0.145605 -0.423633 0.894055 78 26 19
0.364832 -0.636684 -8.14597 0.493047 -0.551274 0.673054 78 28 19
1.60135 -0.711306 -8.55035 0.302798 0.721473 0.622728 234 123 65
1.64445 -0.701417 -8.55981 0.344629 0.679514 0.647682 232 121 61
2.18155 -0.731789 -8.43447 0.0893697 0.826945 0.555135 230 77 62
2.24124 -0.717894 -8.47269 -0.0160445 0.86113 0.508131 215 65 51
2.52719 -0.730683 -8.35258 0.418808 0.513343 0.749052 231 80 61
2.57111 -0.730402 -8.35585 0.370954 0.491749 0.787767 225 74 56
-2.7789 -0.560481 -8.89199 -0.577942 0.366376 0.729213 218 107 83
-1.01432 -0.579581 -7.43202 0.554465 -0.274208 0.785734 64 26 19
-0.572103 -0.633923 -7.63088 0.420983 -0.228932 0.877703 83 28 19
-0.43303 -0.610344 -7.63994 0.176069 -0.432831 0.884114 96 29 19
-0.415623 -0.641245 -7.70455 0.711343 -0.148209 0.687041 92 29 20
-0.38209 -0.621271 -7.74821 0.162759 -0.49592 0.852979 80 29 18
-0.277516 -0.629503 -7.88434 0.256047 -0.606809 0.752478 74 28 23
0.113102 -0.650448 -7.99529 -0.0645435 -0.461639 0.884717 84 27 19
0.147523 -0.654703 -8.03339 0.209689 -0.503626 0.838088 77 28 19
0.604682 -0.67559 -8.26813 0.384965 -0.653115 0.652106 81 27 19
1.44904 -0.75582 -8.61923 0.480991 0.558672 0.675672 231 123 61
1.57692 -0.728621 -8.61559 0.331554 0.705134 0.626784 239 132 74
1.60648 -0.756119 -8.53121 0.387901 0.651944 0.651538 242 143 81
1.63838 -0.743707 -8.51464 0.422235 0.610522 0.670061 240 139 78
1.79642 -0.768274 -8.51638 -0.871845 0.361393 0.330577 236 131 69
2.46052 -0.765925 -8.29473 -0.335674 0.855449 0.394374 228 80 59
-2.77294 -0.59095 -8.68917 -0.433164 0.614674 0.6592 220 111 77
-2.74426 -0.585415 -8.69133 0.0628773 0.877237 0.475922 220 111 81
-2.59976 -0.579487 -8.76445 0.861568 0.269818 0.429999 202 98 86
-1.48523 -0.602473 -7.57995 0.816248 -0.226314 0.531527 90 37 35
-1.33289 -0.590032 -7.16623 0.00507703 -0.64828 0.761385 102 44 41
-0.623671 -0.647404 -7.6173 0.797282 -0.0245434 0.603108 86 27 18
-0.55348 -0.66509 -7.65367 0.195685 -0.568856 0.798818 77 27 15
-0.450229 -0.660677 -7.7049 -0.29478 -0.304588 0.905721 103 31 20
-0.359868 -0.655716 -7.82247 -0.335213 -0.648914 0.68304 79 29 19
-0.234593 -0.681557 -7.86476 0.639314 -0.362472 0.678153 85 28 18
0.094438 -0.681687 -8.00742 0.592687 -0.334667 0.732612 95 32 21
0.13342 -0.684108 -8.02186 0.0261304 -0.570668 0.820765 77 28 18
0.124848 -0.686686 -8.03933 0.629831 -0.416748 0.655465 79 27 18
1.21584 -0.764751 -8.75469 -0.0872 0.854708 0.511732 217 115 63
1.26669 -0.772747 -8.71229 0.0890031 0.770268 0.631479 238 124 62
1.34574 -0.778084 -8.68116 0.55299 0.461989 0.693374 233 119 58
1.42025 -0.788345 -8.61514 -0.00201172 0.873224 0.487316 234 126 63
1.97507 -0.776646 -8.4446 0.212166 0.707926 0.673667 232 88 58
2.22838 -0.798265 -8.32264 0.256938 0.728578 0.634946 237 70 69
2.4829 -0.804362 -8.29874 -0.471688 0.825002 0.311258 231 77 59
2.48103 -0.803804 -8.29374 -0.472001 0.82488 0.31111 231 77 59
2.48103 -0.803804 -8.29374 -0.472001 0.82488 0.31111 231 77 59
-2.60566 -0.629007 -8.73869 0.749101 0.402013 0.526528 199 97 84
-2.23995 -0.646522 -8.75424 -0.12316 0.859143 0.496694 144 62 45
-2.19927 -0.657651 -8.76571 -0.281521 0.765954 0.57798 135 55 45
-2.07655 -0.641625 -8.73179 -0.00782923 0.879415 0.475992 101 38 29
-1.46703 -0.633679 -7.53975 0.823759 -0.264232 0.501601 87 36 34
-1.3339 -0.633128 -7.2226 -0.0122684 -0.750694 0.660537 98 40 34
-1.28309 -0.629133 -7.2025 0.552968 -0.603685 0.574274 81 32 24
-1.22492 -0.629104 -7.35268 0.105223 -0.735049 0.669799 78 27 19
-1.13412 -0.641163 -7.37079 0.838805 -0.0907048 0.536822 76 28 22
-0.591507 -0.674259 -7.64189 0.536883 -0.228099 0.812236 89 29 20
-0.430169 -0.69673 -7.7318 -0.194413 -0.531488 0.824454 97 29 19
-0.217797 -0.720841 -7.89456 0.640888 -0.352879 0.681718 89 29 19
-0.217797 -0.720841 -7.89456 0.640888 -0.352879 0.681718 89 29 19
-0.217797 -0.720841 -7.89456 0.640888 -0.352879 0.681718 89 29 19
0.130975 -0.723966 -8.06429 0.586959 -0.460297 0.666037 77 26 17
0.224758 -0.720374 -8.10765 0.625109 -0.410032 0.664162 72 25 15
1.35787 -0.804136 -8.55738 0.307309 0.740663 0.597478 231 120 59
1.60055 -0.796059 -8.46965 0.222695 0.783267 0.580431 234 134 71
1.96358 -0.829342 -8.43888 0.222013 0.377207 0.899125 231 122 66
-2.92603 -0.639329 -8.8562 0.53812 0.693187 0.479498 218 109 77
-2.85473 -0.64184 -8.74389 0.637353 0.673431 0.374529 214 109 73
-2.85451 -0.631675 -8.82244 0.410837 0.80615 0.425836 220 110 80
-2.57039 -0.672859 -8.70988 0.254515 0.786063 0.563318 190 88 60
-2.22803 -0.679078 -8.57523 -0.0806782 0.873371 0.480327 162 72 56
-2.18863 -0.684116 -8.63165 -0.125182 0.861586 0.491934 143 61 49
-2.21418 -0.68013 -8.62073 -0.218852 0.821166 0.527058 152 66 52
-2.20694 -0.67187 -8.63575 -0.205473 0.827553 0.522434 147 62 49
-2.13311 -0.660351 -8.67988 -0.0916984 0.871343 0.48203 112 42 33
-1.67401 -0.691281 -8.38349 -0.705361 0.150795 0.692623 85 36 35
-1.31265 -0.669286 -7.21063 0.244797 -0.786327 0.567243 98 41 36
-1.11363 -0.671779 -7.37902 0.831202 -0.127886 0.541062 72 27 21
-0.551746 -0.699878 -7.67248 0.39065 -0.581438 0.713668 77 28 15
-0.430158 -0.734153 -7.75584 -0.0388595 -0.709567 0.703566 97 30 19
-0.404396 -0.720123 -7.84274 0.547112 -0.185134 0.81633 88 27 16
0.139948 -0.764433 -8.09362 0.457098 -0.458748 0.761979 75 27 17
1.08488 -0.836165 -8.35035 -0.503207 -0.364996 0.783301 240 119 67
1.11216 -0.820265 -8.39035 -0.78879 -0.26626 0.554 235 119 61
1.21363 -0.828226 -8.73104 -0.867148 0.303742 0.39471 232 120 61
1.21363 -0.828226 -8.73104 -0.867148 0.303742 0.39471 232 120 61
1.12071 -0.837634 -8.35823 -0.465222 0.0386912 0.884348 240 113 67
1.14521 -0.811388 -8.42532 -0.811291 0.43612 0.389365 232 119 60
1.16062 -0.822935 -8.37564 -0.340546 0.295151 0.8927 238 122 61
1.19135 -0.818204 -8.31848 -0.90492 0.111964 0.41059 231 119 62
1.35458 -0.835919 -8.48929 0.226837 0.793588 0.564592 236 128 66
1.36072 -0.834328 -8.54292 0.159147 0.827014 0.539184 230 123 64
1.36072 -0.834328 -8.54292 0.159147 0.827014 0.539184 230 123 64
1.36072 -0.834328 -8.54292 0.159147 0.827014 0.539184 230 123 64
-2.91755 -0.67847 -8.80978 -0.438905 0.518111 0.734114 215 109 74
-2.84384 -0.677037 -8.62253 0.336445 0.843614 0.418473 211 106 68
-2.56673 -0.70558 -8.6554 0.35431 0.769888 0.530789 193 93 57
-2.21627 -0.714472 -8.61136 -0.170285 0.759386 0.627962 164 72 55
-2.21626 -0.714471 -8.61135 -0.172012 0.7595 0.627353 164 72 55
-2.18273 -0.698506 -8.71622 -0.439522 0.496501 0.748537 141 61 51
-2.14547 -0.70906 -8.70676 -0.4794 0.549486 0.684281 130 56 48
-2.14174 -0.699775 -8.67764 -0.654778 0.269573 0.706114 127 55 45
-2.09888 -0.717023 -8.66772 -0.462992 0.580577 0.669753 117 47 43
-2.06371 -0.72774 -8.66864 -0.497553 0.528957 0.687493 118 45 45
-1.14828 -0.694112 -7.31885 0.446175 -0.512453 0.733703 79 26 19
-1.12208 -0.715163 -7.33314 0.836837 -0.000835557 0.547452 76 26 19
-0.682215 -0.726691 -7.676 0.80747 -0.053976 0.587434 74 26 17
0.189732 -0.789912 -8.11673 0.467485 -0.585561 0.662251 83 30 19
0.229807 -0.806559 -8.1675 0.582294 -0.4714 0.662357 72 28 19
1.06852 -0.870704 -8.37403 -0.345034 0.00257044 0.938586 241 104 72
1.10251 -0.86875 -8.34373 -0.354788 -0.282249 0.891325 249 96 81
1.14162 -0.869354 -8.33367 -0.681044 0.0195944 0.73198 250 104 84
1.173 -0.851393 -8.3377 -0.336898 0.258049 0.905489 243 117 70
1.21245 -0.855368 -8.2986 -0.826414 0.102299 0.553691 238 126 70
1.34256 -0.859206 -8.33173 0.361927 0.696373 0.619737 233 130 72
1.34256 -0.859206 -8.33173 0.361927 0.696373 0.619737 233 130 72
2.38699 -0.911297 -8.23038 -0.441165 0.314004 0.840699 228 129 70
-2.89414 -0.704789 -8.47937 0.913431 0.241472 0.327619 210 101 64
-2.86851 -0.704055 -8.48807 0.641634 -0.630806 0.436337 212 104 66
-2.84656 -0.708983 -8.57445 0.32058 0.850363 0.417266 216 108 79
-2.52668 -0.739309 -8.65723 0.405184 0.647757 0.645165 187 86 51
-2.19476 -0.731086 -8.54908 -0.164708 0.843232 0.511694 163 69 48
-2.17519 -0.727189 -8.5858 -0.165504 0.843102 0.511651 153 65 47
-1.06415 -0.744712 -7.42629 0.66324 -0.160738 0.730942 63 25 19
-0.662721 -0.77081 -7.75879 -0.296548 -0.584151 0.75553 78 27 17
-0.662721 -0.77081 -7.75879 -0.296548 -0.584151 0.75553 78 27 17
-0.662721 -0.77081 -7.75879 -0.296548 -0.584151 0.75553 78 27 17
-0.362806 -0.78662 -7.89545 -0.051999 -0.163089 0.98524 73 27 17
-0.0494343 -0.812379 -8.02028 0.572175 -0.489526 0.658012 91 30 17
-0.00505306 -0.818749 -8.08704 0.255515 -0.618482 0.743096 91 29 19
0.242357 -0.853724 -8.2072 0.34753 -0.51348 0.784577 70 27 17
0.345098 -0.830543 -8.24431 -0.0645818 -0.681964 0.728529 70 27 19
0.881838 -0.871875 -8.49834 0.000499319 0.883107 0.469172 240 133 66
1.03386 -0.871867 -8.39737 -0.701975 -0.141144 0.698076 231 113 59
1.05147 -0.904432 -8.38959 -0.535437 0.491806 0.68661 226 97 57
1.08593 -0.90299 -8.36424 -0.0996722 0.637905 0.763638 235 79 63
1.12359 -0.900511 -8.32161 -0.444912 -0.114389 0.888239 247 78 76
1.29638 -0.89852 -8.22303 -0.86975 0.152357 0.469385 230 127 72
-2.90816 -0.743195 -8.44596 0.907593 0.116291 0.403425 214 102 67
-2.85843 -0.742917 -8.57641 0.925587 -0.137213 0.35279 215 106 74
-2.11132 -0.767363 -8.66774 -0.627728 0.372395 0.683579 139 58 57
-1.94933 -0.789177 -8.61779 0.561174 0.382439 0.734046 113 51 48
-1.32722 -0.756327 -7.26317 0.180508 -0.273951 0.944652 89 37 36
-1.02202 -0.770708 -7.54462 0.0667304 -0.416038 0.906895 63 26 20
-0.0402436 -0.8511 -8.03819 -0.00108413 -0.567374 0.823459 89 29 16
-0.00266324 -0.853932 -8.07547 0.271894 -0.56456 0.779324 86 28 18
0.196515 -0.857536 -8.18192 0.577864 -0.418813 0.700477 82 28 19
1.08594 -0.936889 -8.33602 -0.148312 0.669434 0.727916 214 79 41
1.12237 -0.915202 -8.32794 -0.56513 0.524693 0.636652 241 73 68
1.15852 -0.916845 -8.30661 -0.597235 0.390171 0.700768 253 101 96
1.19929 -0.933935 -8.30166 -0.100954 0.649605 0.753539 251 111 93
1.23369 -0.910253 -8.27601 -0.250643 0.297368 0.921277 241 122 70
1.30344 -0.934782 -8.1957 -0.872976 0.11375 0.474313 235 129 71
-2.8784 -0.770287 -8.48728 0.941727 0.0588316 0.331194 219 106 77
-2.07256 -0.807527 -8.55447 -0.658513 -0.0575421 0.750367 138 55 47
-1.99591 -0.802236 -8.53938 -0.145502 0.865349 0.479583 109 45 35
-1.95312 -0.821153 -8.57166 0.330001 0.838014 0.434548 104 45 30
-1.34047 -0.782066 -7.24886 0.802106 -0.285186 0.524685 84 36 35
-1.02335 -0.806235 -7.54828 0.226591 -0.69384 0.683552 63 26 20
-0.681727 -0.828824 -7.73321 0.400585 -0.339151 0.85118 74 27 18
-0.107888 -0.884609 -8.01668 0.706346 -0.281609 0.64944 91 29 18
-0.0714868 -0.886573 -8.04007 0.273712 -0.320274 0.906921 97 29 18
-0.0398808 -0.889591 -8.06286 0.133644 -0.0371047 0.990335 94 30 18
-0.0102945 -0.894779 -8.09871 0.171854 0.543137 0.821869 84 28 16
0.15168 -0.896836 -8.20472 0.485108 0.309129 0.817991 71 25 15
0.244297 -0.897373 -8.24445 0.45237 -0.464684 0.761203 72 27 17
1.04771 -0.958617 -8.33358 -0.0239719 0.848727 0.528288 229 124 62
1.08604 -0.970456 -8.30652 -0.161743 0.694126 0.701447 218 97 53
1.12541 -0.950332 -8.29649 -0.54884 0.502193 0.668264 241 78 69
1.16168 -0.953237 -8.28241 -0.164815 0.60924 0.775669 249 84 83
1.23485 -0.945004 -8.25896 -0.556267 0.458739 0.692911 244 105 79
1.27163 -0.947516 -8.25298 -0.737263 0.453538 0.500745 239 110 71
-2.7233 -0.823795 -8.56166 0.215964 0.551861 0.805487 215 110 82
-2.67819 -0.822935 -8.54939 0.223367 0.860686 0.457523 210 107 73
-2.06385 -0.84972 -8.46732 -0.0734924 0.886059 0.45771 140 58 36
-2.02509 -0.831912 -8.46253 -0.0560424 0.887371 0.457637 122 47 32
-1.99446 -0.836733 -8.4755 -0.187285 0.845027 0.500854 116 45 29
-1.33043 -0.812395 -7.27987 0.797258 -0.293316 0.527585 84 37 35
-1.12805 -0.831851 -7.44779 0.8447 0.0166278 0.534982 76 25 17
-1.12805 -0.831851 -7.44779 0.8447 0.0166278 0.534982 75 24 16
-1.06944 -0.827657 -7.43503 0.83049 -0.100061 0.547973 68 25 19
-0.362341 -0.90106 -7.94807 0.784746 -0.0345049 0.618856 75 25 20
-0.0944205 -0.920021 -8.04726 0.310952 -0.410607 0.857153 97 31 19
0.181993 -0.944338 -8.22803 0.664127 0.419673 0.618716 84 27 18
1.03088 -0.975359 -8.37275 -0.643596 0.524795 0.557112 237 128 65
1.04592 -0.990641 -8.28818 -0.151322 0.778292 0.609395 233 126 61
1.08534 -1.00226 -8.26516 0.0125633 0.771094 0.636597 224 107 56
1.12965 -0.985255 -8.26898 -0.46653 0.542278 0.698774 229 69 57
1.16378 -0.992178 -8.24454 -0.415457 0.733132 0.538436 245 77 71
1.24205 -0.979974 -8.23934 -0.48267 0.329668 0.811387 250 100 94
1.27626 -0.979946 -8.21876 -0.727558 0.415444 0.545953 240 96 71
1.30078 -1.00478 -8.17526 -0.613014 0.674128 0.412026 238 114 72
1.33696 -1.01271 -8.1708 -0.241058 0.876969 0.415711 233 126 68
-2.71774 -0.820086 -8.42924 0.923753 0.16742 0.344457 215 111 83
-2.70119 -0.853859 -8.47987 0.35598 0.687603 0.632835 213 109 78
-2.06017 -0.864603 -8.47079 -0.13299 0.872041 0.471018 139 56 36
-2.00769 -0.877326 -8.4631 -0.230361 0.820586 0.523041 131 53 35
-1.94943 -0.883274 -8.42109 -0.412999 0.701259 0.581091 111 42 32
-1.87826 -0.871998 -8.4825 -0.103204 0.884646 0.454697 110 44 38
-1.87826 -0.871998 -8.4825 -0.103204 0.884646 0.454697 110 44 38
-1.35231 -0.834252 -7.33025 0.801354 -0.285779 0.52551 81 36 34
-1.35208 -0.833134 -7.33414 0.355446 -0.73982 0.571249 81 36 34
-1.35208 -0.833134 -7.33414 0.355446 -0.73982 0.571249 81 36 34
-1.29704 -0.849151 -7.38281 0.818437 -0.224926 0.528743 85 34 30
-1.15606 -0.864939 -7.4417 0.305887 -0.752963 0.582649 80 25 18
-0.950331 -0.882589 -7.60342 -0.66531 0.00882387 0.746516 76 26 18
-0.352465 -0.942924 -7.96382 0.777344 -0.0872658 0.622993 76 26 19
-0.0810836 -0.95599 -8.07907 0.171753 -0.652217 0.738318 102 31 19
1.04406 -1.02187 -8.27564 -0.567174 0.137122 0.812103 239 129 64
1.08604 -1.03546 -8.23518 -0.0202742 0.705739 0.708181 231 121 62
1.12997 -1.02065 -8.24558 -0.36771 0.677565 0.636942 220 77 49
1.21758 -1.01043 -8.22388 -0.26269 0.583173 0.768702 253 100 97
1.25299 -1.01206 -8.2158 -0.437878 0.441823 0.782978 251 100 96
1.29247 -1.03983 -8.12424 -0.551583 0.64864 0.524426 241 104 71
-2.50873 -0.877903 -8.42794 -0.527956 0.359608 0.769379 206 101 68
-2.1538 -0.898852 -8.42957 0.122866 0.892323 0.434354 174 82 53
-2.06214 -0.898985 -8.4148 -0.360333 0.751465 0.552684 153 64 46
-1.86873 -0.907416 -8.40948 -0.114099 0.884035 0.453281 118 48 47
-0.926956 -0.909736 -7.59932 0.240434 -0.44752 0.861346 83 27 17
-0.682721 -0.918402 -7.72578 0.333401 -0.433171 0.837381 77 26 18
-0.60221 -0.9177 -7.75552 0.740305 -0.197787 0.642518 82 27 16
-0.039457 -0.983696 -8.108 0.683688 -0.18187 0.706749 85 27 17
0.220268 -1.00303 -8.22463 0.426999 0.225459 0.875694 138 58 31
0.896831 -1.05698 -8.16567 0.526872 0.565945 0.634123 233 121 61
1.01736 -1.06822 -8.22828 -0.30223 0.616764 0.726814 236 123 59
1.01733 -1.06846 -8.22955 -0.301125 0.594104 0.745898 236 123 59
0.984574 -1.0497 -8.20082 -0.301571 0.44333 0.844105 235 122 61
1.01733 -1.06846 -8.22955 -0.301125 0.594104 0.745898 236 123 59
1.04541 -1.06093 -8.26626 -0.709628 0.0737352 0.700708 239 125 61
1.12984 -1.052 -8.21047 -0.32955 0.560498 0.759762 220 99 53
1.21674 -1.04839 -8.17113 -0.729646 0.552412 0.40306 248 91 84
1.25516 -1.04229 -8.16095 -0.606123 0.677721 0.416304 251 94 88
1.28483 -1.07011 -8.05682 -0.737651 0.310977 0.599302 246 99 74
1.32761 -1.04143 -8.08957 -0.356951 0.812676 0.460591 233 121 66
-2.15938 -0.932944 -8.42555 -0.150174 0.86436 0.479927 174 80 53
-0.953382 -0.943468 -7.6216 0.149895 -0.466416 0.871773 74 27 18
-0.600862 -0.978932 -7.79612 0.753622 -0.210129 0.622816 80 25 15
-0.388112 -1.00826 -7.99706 0.723573 -0.00688899 0.690213 89 28 16
-0.0446234 -1.0355 -8.15085 0.665565 -0.351845 0.658201 88 27 16
-0.00866195 -1.0191 -8.1808 0.653357 -0.371454 0.659656 82 27 17
0.848083 -1.05789 -8.10523 0.609936 0.24351 0.75411 234 123 65
1.08552 -1.07479 -8.23924 -0.69912 0.336629 0.630803 234 124 63
1.09581 -1.08841 -8.22546 -0.737023 0.335208 0.586884 233 123 64
1.13054 -1.08579 -8.19448 -0.416225 0.362888 0.833708 229 117 64
1.16507 -1.08625 -8.17961 -0.303632 0.56354 0.768264 224 105 58
1.19832 -1.09615 -8.1585 -0.811373 0.281613 0.512219 218 95 51
2.62686 -1.16612 -8.03513 0.346101 -0.479899 0.80617 220 118 63
2.71645 -1.14282 -7.85816 -0.816682 0.477213 0.324495 162 65 36
-2.23302 -0.957923 -8.38963 -0.139186 0.871754 0.469758 177 81 54
-0.973626 -0.973798 -7.62347 0.211273 -0.394117 0.894447 68 25 17
-0.936093 -0.974445 -7.63599 0.237017 -0.389155 0.890158 77 25 19
-0.684815 -0.986604 -7.80138 0.761008 -0.217049 0.611356 74 24 17
-0.548574 -1.02101 -7.87125 -0.172543 0.100078 0.979905 88 29 18
-0.354533 -1.0328 -8.03402 0.720254 0.00620407 0.693683 78 27 16
-0.134198 -1.04138 -8.14007 0.682176 -0.332729 0.651097 78 27 16
-0.117892 -1.05128 -8.15896 0.652765 -0.385096 0.652379 83 30 21
1.14225 -1.12099 -8.19566 -0.850331 0.240322 0.468169 230 118 64
1.21398 -1.13409 -8.1241 -0.864358 0.169822 0.473335 226 115 63
-2.45355 -0.974769 -8.40016 0.917867 -0.025576 0.396062 201 99 61
-2.41213 -0.990571 -8.34483 -0.0785398 0.889613 0.449912 196 93 55
-2.34999 -0.963631 -8.35024 -0.0541348 0.893222 0.446346 183 85 53
-2.29126 -0.978101 -8.3387 -0.104101 0.883537 0.456645 184 87 57
-1.26215 -0.987771 -7.54793 0.854992 0.0778763 0.512761 76 27 19
-1.08276 -0.974888 -7.56038 0.612364 -0.498324 0.613745 73 25 16
-1.03477 -1.00643 -7.65661 0.742055 0.0151075 0.670168 66 26 19
-0.985967 -1.00043 -7.60819 0.0944663 -0.361599 0.927536 64 25 17
-0.534024 -1.05886 -7.91972 -0.0392108 -0.286119 0.957392 85 27 13
-0.377514 -1.04414 -7.97171 0.0860016 -0.4647 0.881282 83 27 15
-0.170833 -1.09086 -8.1747 0.37731 -0.676707 0.632222 88 28 17
-0.00307651 -1.09769 -8.16901 0.331117 0.132823 0.934195 195 100 54
0.24685 -1.10648 -8.22795 -0.646866 -0.480639 0.592072 231 119 56
1.1151 -1.15374 -8.05749 -0.291069 0.734841 0.612607 235 124 65
1.15335 -1.14706 -8.15425 -0.794396 0.225326 0.56406 230 117 60
1.17986 -1.14361 -8.14486 -0.758141 0.395954 0.518115 230 119 62
1.64464 -1.16334 -8.04593 0.448963 0.598684 0.663332 234 134 72
-2.46915 -1.00845 -8.28465 -0.0498631 0.895617 0.442023 203 102 56
-2.28915 -1.00897 -8.25785 -0.136049 0.874663 0.465247 190 88 55
-1.78805 -1.03214 -8.25251 0.0235788 0.904034 0.42681 114 47 39
-1.73223 -1.02819 -8.31616 0.150854 0.893523 0.422918 100 40 32
-1.65142 -1.03737 -8.24528 -0.489279 0.666291 0.562727 77 31 25
-1.59487 -1.03822 -8.19348 -0.642287 0.293892 0.707881 63 29 31
-1.10285 -1.00162 -7.59119 -0.170085 0.137329 0.975813 74 26 16
-1.06971 -1.01334 -7.59785 0.753115 0.19863 0.627187 74 24 17
-1.04501 -1.03083 -7.64451 0.804551 0.174634 0.567627 66 25 18
-0.967503 -1.01656 -7.66648 -0.227141 -0.426096 0.875699 73 25 17
-0.406648 -1.1012 -7.99259 0.54275 -0.408089 0.734088 91 27 14
-0.369164 -1.108 -8.05637 0.720654 0.397176 0.568251 79 27 15
-0.358088 -1.09444 -8.02724 0.705988 0.426227 0.565607 77 27 15
-0.0120606 -1.12539 -8.12193 0.475731 0.188686 0.859114 234 127 66
0.0219386 -1.12293 -8.1355 0.221602 0.446201 0.867063 235 124 62
1.15366 -1.1649 -8.05753 -0.0813738 0.908615 0.40963 234 129 68
1.17937 -1.1997 -8.07308 -0.325025 0.888201 0.324742 236 138 74
1.23763 -1.1928 -8.04763 -0.773851 0.530965 0.345298 228 131 71
-2.40894 -1.02184 -8.2579 -0.0831482 0.890577 0.447168 202 97 55
-2.29539 -1.04602 -8.25035 -0.0449182 0.899719 0.434152 192 89 55
-1.81541 -1.05868 -8.17171 -0.283009 0.759104 0.586231 121 48 35
-1.78291 -1.07436 -8.20144 -0.223834 0.805858 0.548171 111 42 32
-1.70788 -1.06775 -8.25561 -0.108435 0.897173 0.428162 97 35 26
-1.70592 -1.06292 -8.21568 0.256549 0.871897 0.417107 98 35 27
-1.67151 -1.08201 -8.26662 -0.302211 0.80363 0.512687 106 44 41
-1.08827 -1.04121 -7.57483 0.420409 -0.0956399 0.90228 78 26 17
-1.06182 -1.05751 -7.613 0.638989 -0.242975 0.729832 74 26 17
-0.966496 -1.04727 -7.6568 -0.411029 -0.493197 0.766689 68 25 17
-0.552981 -1.09106 -7.92947 -0.555472 -0.026392 0.831116 87 27 15
-0.482077 -1.10934 -7.96494 0.760469 0.310254 0.570464 99 29 18
-0.444391 -1.11711 -7.9972 0.730391 0.387164 0.562702 101 29 17
-0.390808 -1.13507 -8.01314 0.147698 0.177994 0.972884 84 26 16
-0.255567 -1.14113 -8.10004 0.207139 0.505201 0.837774 100 33 16
-0.208936 -1.14767 -8.02811 0.492991 0.586895 0.642273 201 102 55
-1.95831 -1.08573 -8.19666 -0.0953458 0.898231 0.429058 180 87 71
-1.83125 -1.09742 -8.19681 -0.195485 0.637775 0.745002 133 53 39
-1.76142 -1.09392 -8.23345 -0.245174 0.759874 0.602064 112 45 38
-1.70346 -1.0978 -8.18969 -0.214735 0.842663 0.493769 107 40 35
-1.56339 -1.09598 -8.16551 0.115105 0.901766 0.416616 76 36 39
-1.03955 -1.08371 -7.61605 0.171304 -0.499125 0.849429 66 24 17
-0.97641 -1.07884 -7.6393 -0.423439 -0.475126 0.771333 66 25 17
-0.306047 -1.17999 -8.10407 0.552554 0.650532 0.52105 154 69 37
-0.183303 -1.18862 -8.07636 0.481833 0.710894 0.512314 240 132 64
-1.90882 -1.10491 -8.21049 0.209324 0.889199 0.406826 170 79 61
-1.83581 -1.1328 -8.17661 0.28267 0.767321 0.575601 155 68 57
-1.791 -1.11238 -8.1778 -0.0458667 0.681774 0.730124 129 53 50
-1.74192 -1.13201 -8.17004 -0.467297 0.636551 0.613544 113 42 37
-1.63994 -1.14376 -8.15674 0.325408 0.852754 0.40856 119 50 49
-1.58768 -1.14074 -8.13297 0.339665 0.846021 0.410945 105 44 40
2.32852 -1.31445 -7.74657 -0.880369 0.417931 0.22424 216 117 61
-1.78057 -1.14535 -8.08309 0.0240526 0.823893 0.566235 140 58 41
-1.74058 -1.16564 -8.14046 -0.105742 0.582285 0.806079 120 45 36
-1.70068 -1.14405 -8.13732 -0.113534 0.599196 0.792511 112 42 39
-1.67171 -1.16279 -8.14875 -0.367039 0.49376 0.788342 118 49 48
-1.63944 -1.1485 -8.13581 -0.0526597 0.837311 0.544184 119 51 49
-1.60292 -1.17917 -8.14741 0.317972 0.783924 0.533251 110 45 40
2.00742 -1.32643 -7.83795 -0.634709 0.0262266 0.772306 235 126 68
2.0162 -1.33499 -7.71443 -0.796514 -0.3373 0.501791 233 122 68
2.25592 -1.33152 -7.68715 -0.234521 0.851032 0.469834 230 127 67
2.27994 -1.32216 -7.5697 -0.870798 0.405134 0.278526 227 125 71
-1.85916 -1.17018 -8.12393 0.107375 0.908487 0.403884 165 73 46
-1.8053 -1.18596 -8.10743 -0.00385851 0.91168 0.410884 150 62 35
-1.74807 -1.19277 -8.06585 -0.131466 0.875841 0.464348 139 56 43
-1.70008 -1.17794 -8.11007 -0.12003 0.586756 0.800818 122 48 48
-1.65628 -1.19445 -8.11601 -0.0385637 0.893605 0.447194 120 49 51
-1.53798 -1.19269 -8.05019 0.291461 0.785507 0.545921 99 42 37
-0.60007 -1.24159 -7.96277 -0.0700173 0.915824 0.39543 121 43 24
-0.538077 -1.24135 -8.02997 -0.196272 0.698593 0.688074 146 56 30
-0.543315 -1.24196 -8.0368 -0.194281 0.826129 0.528929 139 52 27
-0.430926 -1.25215 -7.9553 0.302359 0.780978 0.546491 232 130 69
-0.340612 -1.26781 -8.00235 0.72994 0.380576 0.567757 239 131 66
1.8828 -1.36094 -7.89958 0.524158 -0.10905 0.84461 236 127 70
1.90347 -1.38217 -7.86608 0.463726 -0.15979 0.87145 241 125 71
1.97912 -1.37969 -7.8336 -0.0567904 0.0185278 0.998214 235 116 68
1.99836 -1.36425 -7.74986 -0.879796 -0.150978 0.450738 232 118 67
2.37174 -1.38659 -7.64247 0.445502 0.508869 0.7366 220 119 72
2.41994 -1.39188 -7.69403 0.528978 0.0675953 0.845939 223 125 73
-2.25351 -1.17401 -8.11377 -0.00776279 0.90415 0.427145 212 107 86
-2.10567 -1.18003 -8.084 0.284819 0.877133 0.386673 180 84 64
-2.06642 -1.19787 -8.07892 0.0237696 0.726764 0.686476 185 88 62
-1.94301 -1.21102 -8.07775 -0.531287 0.497028 0.686074 182 87 55
-1.88833 -1.19353 -7.99014 0.510794 0.766914 0.3885 184 87 55
-1.85427 -1.19509 -8.0466 0.323051 0.778885 0.537565 172 77 47
-1.7153 -1.21548 -8.10984 -0.0723767 0.882491 0.464727 134 56 58
-1.65296 -1.21637 -8.09807 0.192699 0.896362 0.399252 124 53 53
-1.59736 -1.2046 -8.07649 0.312164 0.772246 0.553344 116 48 44
-1.54078 -1.22605 -8.03154 0.204576 0.864953 0.458263 104 41 34
-0.597048 -1.26407 -7.88512 -0.0470971 0.866531 0.496897 222 115 65
-0.551628 -1.26057 -7.97307 -0.0143328 0.905563 0.42397 204 100 55
-0.362797 -1.29227 -8.00801 0.718857 0.413576 0.558748 243 131 65
-2.90422 -1.17401 -8.04601 0.388448 0.854112 0.345834 204 105 62
-2.8413 -1.17981 -8.06332 -0.305344 0.361141 0.881103 220 119 70
-2.67187 -1.18455 -8.05042 0.569594 0.701876 0.427707 212 106 61
-2.67187 -1.18455 -8.05042 0.569594 0.701876 0.427707 212 106 61
-2.67187 -1.18455 -8.05042 0.569594 0.701876 0.427707 212 106 61
-2.64101 -1.19998 -8.07471 -0.547457 0.476227 0.688113 206 102 60
-1.85445 -1.22453 -8.00465 -0.558422 0.567129 0.605417 176 79 54
-1.79611 -1.22773 -8.04137 -0.390166 0.762137 0.516641 163 69 54
-1.75562 -1.23867 -8.05093 -0.250081 0.842278 0.477522 157 69 61
-1.70235 -1.24024 -8.01022 -0.29381 0.81816 0.494256 144 65 63
-0.909337 -1.24809 -7.79838 -0.607055 -0.387796 0.693613 75 27 15
-0.759075 -1.27038 -7.85138 0.361735 0.273678 0.891206 87 28 11
-0.71441 -1.26268 -7.80919 -0.228612 0.119574 0.966146 118 43 19
-0.679407 -1.28776 -7.80204 0.668397 0.419686 0.614092 221 115 58
-0.638226 -1.27272 -7.82434 -0.176048 0.520212 0.835695 217 113 58
-0.60278 -1.29821 -7.879 0.689021 0.505415 0.519429 237 132 61
-0.350741 -1.31978 -8.0274 0.71886 0.397763 0.57011 241 124 62
-2.55808 -1.20507 -8.02375 -0.516724 0.54811 0.657702 213 105 66
-2.19214 -1.22922 -8.01396 0.804352 0.322711 0.498875 203 98 75
-1.92247 -1.24104 -7.96461 -0.141662 0.893843 0.425413 181 85 57
-1.79524 -1.25846 -7.98334 -0.237104 0.851527 0.467636 185 87 74
-1.74965 -1.26739 -7.97689 -0.645408 0.410726 0.644013 165 75 62
-1.72828 -1.26974 -7.98902 -0.668934 0.24037 0.703384 154 67 56
-1.64766 -1.25257 -7.83653 -0.327657 0.7692 0.548609 137 57 45
-1.54553 -1.28178 -7.97088 -0.246695 0.857079 0.45228 109 41 33
-0.879632 -1.29808 -7.79116 -0.631041 -0.349597 0.692509 76 25 13
-0.845606 -1.29982 -7.78161 -0.473498 0.0397691 0.879896 96 34 15
-0.701343 -1.29667 -7.81442 -0.0496447 0.0209264 0.998548 219 112 57
2.0252 -1.46482 -7.88093 0.321723 0.732291 0.600203 238 108 71
-2.83026 -1.24349 -8.00924 0.783893 0.543584 0.300045 201 94 55
-2.08375 -1.26142 -8.00654 -0.526753 0.594002 0.608024 185 86 58
-2.02905 -1.26617 -7.97142 -0.215606 0.855748 0.47033 185 87 60
-1.98001 -1.27641 -7.96758 -0.329707 0.777408 0.535659 190 90 69
-1.90968 -1.26886 -7.88642 -0.14957 0.892639 0.425235 194 92 75
-1.51346 -1.29922 -8.0202 -0.532887 0.644639 0.548153 103 39 31
-0.942045 -1.31438 -7.78848 0.365155 0.208405 0.90732 72 27 15
-0.861334 -1.33204 -7.77411 -0.218621 -0.0476344 0.974647 167 79 38
-0.840697 -1.33907 -7.78326 -0.325486 -0.285978 0.901263 203 104 51
-0.797617 -1.32629 -7.75191 -0.378495 -0.515392 0.768838 225 119 60
1.72325 -1.48531 -7.7657 -0.797108 -0.286934 0.531308 231 122 62
1.72491 -1.49834 -7.77213 0.450017 0.464565 0.762669 235 123 64
-2.17719 -1.29791 -7.94893 -0.261686 0.82193 0.505917 211 105 73
-2.01945 -1.28764 -7.8625 -0.201808 0.871549 0.446852 194 90 72
-1.09965 -1.33626 -7.64763 0.62491 0.640556 0.446291 79 26 14
-1.00496 -1.34871 -7.75382 0.571837 0.656452 0.492009 76 24 13
-0.95917 -1.34407 -7.77995 0.521435 -0.313095 0.793773 84 27 14
-0.924738 -1.34546 -7.795 0.204977 -0.145159 0.967943 122 47 19
-0.884654 -1.36991 -7.81091 -0.117865 -0.522929 0.844188 216 110 54
-0.757559 -1.36125 -7.7686 -0.580132 -0.430863 0.691233 235 129 63
2.15282 -1.55162 -7.81418 0.165689 0.783872 0.598408 217 117 67
-2.79715 -1.28653 -7.8545 0.666013 0.610547 0.428554 212 104 78
-2.43503 -1.32244 -7.95864 -0.506392 -0.0853384 0.85807 212 106 66
-2.4343 -1.31954 -7.95057 -0.514351 -0.055802 0.855762 212 106 66
-1.00154 -1.37878 -7.71015 0.770828 0.403244 0.493172 189 92 47
-0.952987 -1.38177 -7.78299 0.500994 0.182416 0.846008 204 102 54
-0.972107 -1.38075 -7.75695 0.563712 0.599671 0.567999 198 99 52
-0.976132 -1.37603 -7.75173 0.765322 -0.00439224 0.643633 184 90 49
-0.921553 -1.38312 -7.80312 0.365275 0.171964 0.914878 218 111 56
-0.941602 -1.37482 -7.78498 0.471797 0.525147 0.708257 198 98 53
-2.37291 -1.34596 -7.91851 -0.367188 -0.374729 0.851323 213 105 66
-2.08067 -1.35316 -7.8818 -0.0810109 0.91546 0.394169 213 108 81
-1.88597 -1.34562 -7.66216 -0.0594576 0.920364 0.386517 189 92 56
-1.82967 -1.35951 -7.8303 -0.160719 0.896353 0.413184 186 89 65
-1.82959 -1.35942 -7.82984 -0.172793 0.892075 0.417545 186 89 65
-1.15372 -1.38785 -7.64944 0.0148231 0.262826 0.964729 102 31 17
-1.12315 -1.38049 -7.6774 0.274726 0.61654 0.737837 100 32 15
-1.07547 -1.3779 -7.62964 0.793158 0.358495 0.492323 150 63 30
-0.996371 -1.39265 -7.68651 0.737232 0.473909 0.48156 228 118 57
-0.963676 -1.39994 -7.72093 0.70959 0.519306 0.476239 236 122 54
-0.942583 -1.40846 -7.766 0.633909 0.622727 0.458663 236 124 54
-0.932477 -1.40956 -7.77291 0.63476 0.620859 0.460015 237 124 55
-0.935969 -1.41244 -7.76037 0.625725 0.574243 0.527934 238 125 55
-0.902357 -1.4123 -7.80004 0.705315 0.520174 0.481611 234 122 55
-2.79754 -1.32181 -7.83287 0.434395 0.840992 0.322541 207 100 66
-2.76731 -1.32606 -7.8805 0.815169 0.496788 0.297828 207 101 73
-2.38309 -1.37394 -7.88195 -0.387469 -0.235278 0.891354 215 106 66
-2.39598 -1.3594 -7.87863 -0.50262 -0.0548764 0.862764 212 105 63
-2.31316 -1.36058 -7.79499 -0.333637 -0.188038 0.923758 218 106 73
-2.13407 -1.36823 -7.83875 -0.179216 0.87834 0.443171 211 106 79
-1.85656 -1.34877 -7.63163 0.814427 0.42418 0.395954 192 94 55
-1.82383 -1.38404 -7.75055 -0.154546 0.900123 0.407302 196 96 69
-1.78033 -1.40499 -7.79626 -0.120192 0.915452 0.38406 191 90 69
-1.78033 -1.40499 -7.79626 -0.120192 0.915452 0.38406 191 90 69
-1.23338 -1.40376 -7.72886 0.357076 0.434808 0.826703 71 25 17
-1.1916 -1.41461 -7.63616 -0.0212559 0.555562 0.831203 134 53 31
-1.12802 -1.40911 -7.60376 -0.308384 0.447417 0.839475 204 98 51
-1.07801 -1.41 -7.59139 0.801419 0.337358 0.49388 233 121 58
-1.04991 -1.41083 -7.57314 0.726472 0.501565 0.469757 238 127 60
-1.00359 -1.40564 -7.64597 0.702799 0.534993 0.468888 235 122 56
-2.76449 -1.36095 -7.82707 0.854005 0.427823 0.296045 207 101 64
-2.35664 -1.39433 -7.81401 -0.497358 -0.106056 0.861039 219 105 76
-2.35677 -1.3944 -7.81427 -0.497991 -0.104175 0.860902 219 105 76
-2.32726 -1.39696 -7.79671 -0.410463 -0.298161 0.861754 221 105 81
-2.25553 -1.38191 -7.70313 -0.395878 -0.324357 0.859112 228 109 93
-2.1317 -1.39606 -7.77634 -0.499215 0.535272 0.681372 214 110 73
-1.87921 -1.37171 -7.57628 -0.156188 0.778575 0.607805 194 95 55
-1.85376 -1.38866 -7.61756 -0.280041 0.829682 0.482913 198 98 65
-1.72482 -1.42436 -7.85896 0.222676 0.902672 0.368237 189 89 66
-1.61094 -1.41826 -7.79842 0.829921 0.354171 0.431039 182 85 67
-1.25065 -1.43723 -7.73542 -0.648646 0.120995 0.751412 109 37 23
-1.24663 -1.45033 -7.72472 -0.642917 0.0651884 0.763157 156 67 42
-1.15956 -1.43345 -7.59471 0.142458 0.506578 0.850344 225 117 61
-1.04617 -1.46149 -7.66037 0.804488 0.324176 0.497704 236 127 60
-2.24827 -1.41572 -7.7009 -0.18165 -0.557183 0.810278 223 111 87
-2.24827 -1.41572 -7.7009 -0.18165 -0.557183 0.810278 223 111 87
-2.11338 -1.41417 -7.78675 -0.484024 0.573352 0.661051 221 119 80
-1.90891 -1.40577 -7.54495 -0.492304 0.662135 0.564991 201 99 74
-1.59231 -1.46998 -7.74356 0.74227 0.392393 0.543197 193 91 61
-1.59231 -1.46998 -7.74356 0.74227 0.392393 0.543197 193 91 61
-1.5677 -1.45368 -7.75575 0.708388 0.456511 0.538316 188 85 60
-1.26773 -1.46981 -7.66062 -0.596225 0.483782 0.64068 218 114 69
-0.79459 -1.53746 -7.64691 -0.563006 0.630306 0.534546 229 117 55
-0.805571 -1.53359 -7.50966 -0.585637 0.449995 0.674191 230 119 59
-0.751968 -1.5489 -7.67416 0.688827 0.319767 0.650589 230 118 56
-1.52442 -1.4904 -7.45817 0.789411 0.446451 0.421322 216 114 66
-1.05619 -1.56107 -7.6131 0.0535923 0.898017 0.436685 237 97 81
-1.54362 -1.54164 -7.5111 0.8129 0.398794 0.424449 218 117 66
-1.06146 -1.58263 -7.55818 -0.0026671 0.905838 0.423616 226 90 64
-1.05624 -1.58466 -7.56342 0.0537931 0.899617 0.433354 227 94 65
-0.826602 -1.57024 -7.42595 0.67967 -0.375554 0.630085 232 123 74
0.415523 1.58784 -9.50567 0.620221 0.447328 0.644379 192 126 98
0.428639 1.584 -9.46526 0.180485 0.743277 0.644177 190 125 98
0.48905 1.63313 -9.6485 0.016962 0.768266 0.639906 178 122 101
0.543158 1.63158 -9.53611 0.517735 0.545694 0.658914 181 123 98
0.591938 1.63014 -9.53502 -0.0771556 0.764878 0.639537 209 120 94
-0.598042 1.50518 -9.45469 0.69231 0.442157 0.570267 246 125 104
-0.522066 1.51607 -9.46114 0.720055 0.39612 0.569746 248 127 106
0.41557 1.57878 -9.50833 0.628057 0.437924 0.643247 193 126 98
0.503325 1.55234 -9.40785 1.38357e-005 0.771329 0.636436 184 122 99
0.504419 1.53751 -9.37769 -0.276706 0.719867 0.636573 183 123 99
0.527556 1.57903 -9.43862 -0.784416 0.0624757 0.61708 177 123 99
0.555719 1.53484 -9.40084 -0.711017 0.036026 0.702252 177 125 99
0.575858 1.57774 -9.43811 0.158172 0.305023 0.939118 178 124 98
0.620295 1.58499 -9.49389 0.0394721 0.768618 0.638489 197 121 99
0.65057 1.54664 -9.41949 0.152905 0.74908 0.644592 199 121 100
0.695318 1.55111 -9.43214 -0.296306 0.228366 0.92739 236 120 105
-0.625716 1.47609 -9.54345 0.746609 0.366817 0.554996 238 125 105
-0.554208 1.48866 -9.52824 0.762525 0.307662 0.569121 240 124 101
-0.547733 1.48248 -9.51313 0.722968 0.396385 0.565859 238 124 101
-0.282465 1.49912 -9.50277 0.439817 0.653956 0.615551 198 115 93
0.459513 1.49438 -9.3078 -0.801558 0.0637686 0.594507 197 129 100
0.458529 1.48554 -9.31417 -0.790715 0.138359 0.596345 198 129 100
0.71183 1.49627 -9.31985 -0.158135 0.762968 0.626796 217 120 103
-0.86729 1.35224 -8.95337 0.748927 0.38966 0.535979 236 120 90
-0.809306 1.40436 -9.2547 0.821719 -0.369271 0.43407 241 115 89
-0.498945 1.42338 -9.47093 0.559199 0.581281 0.591109 170 102 79
-0.229177 1.41447 -9.29808 0.596216 0.423266 0.682182 167 110 87
0.493183 1.43685 -9.21937 -0.680301 0.39278 0.618801 195 130 102
0.525261 1.42225 -9.17664 -0.775056 0.194645 0.601166 195 127 104
0.575694 1.4826 -9.36324 -0.271928 0.56402 0.779702 179 124 99
0.618658 1.47988 -9.40036 -0.791215 0.0566389 0.60891 178 125 102
0.690749 1.48305 -9.33624 -0.401872 0.648155 0.646834 189 123 101
0.752587 1.48681 -9.36423 -0.203524 0.754444 0.624013 226 118 102
-1.37014 1.28796 -8.80533 0.839129 0.275726 0.468867 236 121 91
-0.848186 1.36165 -9.17836 0.75498 0.378746 0.535309 235 116 90
-0.653208 1.35954 -9.12627 0.776061 0.320174 0.54334 194 109 84
-0.546148 1.35229 -9.23134 0.47263 0.650649 0.594371 171 104 76
-0.499933 1.41711 -9.4714 0.669603 0.468892 0.575996 165 101 78
-0.428913 1.34544 -8.97724 -0.569889 0.265989 0.777481 165 102 80
0.454749 1.40009 -9.21519 -0.648492 0.437015 0.623279 187 126 96
0.510322 1.38281 -9.15395 -0.581823 0.521253 0.624322 194 129 100
0.575923 1.40406 -9.16526 -0.381196 0.679366 0.627018 188 125 102
0.605945 1.3841 -9.07152 0.0940977 0.770365 0.630621 183 124 101
0.750487 1.42649 -9.24039 -0.256493 0.740764 0.620871 189 123 98
0.78611 1.39764 -9.18649 -0.742332 0.325542 0.585633 196 121 96
-1.34212 1.21902 -8.77323 0.775358 0.39891 0.489583 226 115 70
-1.32774 1.26606 -8.95966 0.742822 0.44327 0.501724 226 114 70
-1.13833 1.23346 -8.57339 0.763035 0.398803 0.50866 231 119 81
-0.858354 1.31178 -9.13594 0.728794 0.422633 0.538739 193 101 77
-0.803666 1.29576 -9.14855 0.688143 0.473636 0.549662 156 90 66
-0.694649 1.29255 -9.15487 0.40039 0.700969 0.590195 156 95 75
-0.669963 1.31396 -9.07193 0.764512 0.346178 0.543766 160 95 74
-0.614519 1.30078 -9.13595 0.664234 0.488118 0.566157 156 100 74
-0.376569 1.36385 -9.36664 0.678485 0.450199 0.580499 167 105 81
-0.361978 1.37229 -9.41959 0.682781 0.443322 0.580755 168 106 81
0.470225 1.35321 -9.11538 -0.503039 0.59356 0.628202 183 124 95
0.517341 1.35454 -9.11775 -0.510339 0.493153 0.704524 189 127 96
0.57624 1.35133 -9.10452 -0.696579 -0.104993 0.709756 194 127 101
0.649242 1.35217 -9.08883 -0.290409 0.728784 0.620109 184 124 99
0.667907 1.36838 -9.1563 -0.352499 0.70011 0.620959 183 124 98
0.734093 1.34563 -9.0517 -0.776865 0.243299 0.580764 176 125 99
-1.34817 1.20265 -8.70107 0.804859 0.349776 0.479436 226 114 70
-1.35667 1.20248 -8.78105 0.791637 0.374192 0.483002 226 115 69
-1.19094 1.20026 -8.77429 0.522984 -0.765792 0.374234 216 113 79
-0.875223 1.26932 -9.12095 -0.600546 0.358362 0.714787 171 94 70
-0.766113 1.27102 -9.16446 0.643116 0.524263 0.558166 158 92 69
-0.705775 1.29041 -9.17487 0.476069 0.658472 0.5829 158 95 75
-0.545809 1.26643 -9.02047 0.668953 0.478447 0.568849 159 96 73
-0.351317 1.25547 -8.91663 -0.568866 0.462597 0.679997 163 100 76
-0.34973 1.25589 -8.91696 -0.559075 0.47532 0.679342 163 100 76
-0.214409 1.27758 -9.05313 0.488406 0.627875 0.605997 165 107 82
0.48034 1.29679 -9.02777 -0.728145 0.313462 0.609547 182 124 98
0.526975 1.29821 -9.03275 -0.371325 0.688531 0.622931 182 125 96
0.615102 1.30901 -9.01336 -0.792602 0.17476 0.584159 194 127 102
0.699733 1.28528 -8.95045 -0.552146 0.568656 0.609726 181 124 97
-1.01973 1.18903 -8.91399 0.150861 0.79117 0.592698 180 93 68
-1.00127 1.17806 -8.91777 -0.0603493 0.777637 0.62581 179 94 72
-0.951485 1.21912 -9.02563 -0.457648 0.541878 0.70493 155 89 64
-0.834889 1.19222 -8.90401 0.139882 0.790521 0.596246 169 91 68
-0.743371 1.19423 -8.91871 0.00903612 0.788387 0.615113 155 88 65
-0.730523 1.20445 -8.91572 0.68359 0.477811 0.551726 158 91 68
-0.225359 1.2347 -8.97347 0.496601 0.624443 0.602875 166 105 81
-0.0299363 1.24477 -9.00133 -0.551388 0.517188 0.65459 171 114 91
0.54078 1.2522 -8.92606 -0.385888 0.683586 0.619517 182 124 96
0.644209 1.26359 -8.93716 -0.827805 -0.124493 0.547028 194 128 100
0.698849 1.26457 -8.90722 -0.460327 0.642587 0.61252 183 124 95
-1.77337 1.12303 -8.81766 0.871079 -0.343338 0.3512 226 112 69
-0.999806 1.12625 -8.82631 -0.0583513 0.78071 0.622163 182 97 73
-0.806268 1.16798 -8.8645 0.0119917 0.77236 0.635072 170 92 68
-0.736383 1.15522 -8.85451 0.272305 0.761072 0.588743 157 89 65
-0.67985 1.1368 -8.83645 -0.150676 0.758266 0.634295 153 92 68
-0.493023 1.14555 -8.87226 -0.466271 0.571284 0.675445 159 101 76
0.423815 1.19668 -8.86688 -0.0314429 0.789335 0.613158 184 122 95
0.46959 1.17429 -8.82319 -0.0925265 0.518395 0.850121 185 124 97
0.474159 1.20451 -8.86367 0.58375 0.500076 0.639656 178 121 94
0.515962 1.20798 -8.87469 -0.360877 0.385374 0.849267 177 121 93
0.560259 1.20831 -8.85859 -0.598218 0.51556 0.61346 182 124 95
0.618692 1.21114 -8.88603 -0.346034 0.710729 0.612474 187 124 94
0.650191 1.2275 -8.89803 -0.512176 0.380829 0.769834 193 127 98
0.666299 1.21044 -8.84199 -0.544992 0.432426 0.718326 194 128 98
0.760555 1.22369 -8.86291 -0.726253 0.358923 0.586285 180 124 96
-0.83443 1.08815 -8.74538 -0.147682 0.75781 0.635543 166 91 66
-0.802191 1.12001 -8.79224 -0.00345158 0.790794 0.612073 170 93 70
-0.678416 1.08708 -8.76794 -0.0495735 0.787772 0.613968 158 92 69
0.428508 1.14855 -8.79262 0.0611614 0.791008 0.608742 183 123 97
0.51595 1.16394 -8.83544 -0.210401 0.651663 0.728743 185 124 95
0.563808 1.16271 -8.80585 -0.321283 0.484073 0.813911 182 122 95
0.632561 1.15987 -8.80193 -0.407116 0.680756 0.608957 186 126 98
0.676047 1.16571 -8.81636 -0.303896 0.656356 0.690539 194 128 99
-2.16487 0.950088 -8.34584 0.838704 -0.449483 0.307474 225 109 68
-2.12046 0.970085 -8.36302 0.879914 -0.357713 0.312718 222 104 66
-2.07261 0.96821 -8.31807 0.869995 -0.378456 0.316037 220 97 62
-1.50464 1.03613 -8.70787 0.73707 0.477151 0.478596 154 72 52
-1.35083 1.04931 -8.72637 0.112036 0.800971 0.588127 175 83 63
-1.21238 1.02703 -8.69237 -0.125528 0.76014 0.637519 149 82 59
-0.825571 1.03654 -8.68456 0.132855 0.799717 0.585494 174 92 68
-0.783062 1.06047 -8.7215 0.084739 0.799389 0.594808 169 95 74
-0.614497 1.06708 -8.73925 0.0534606 0.7965 0.60227 160 96 74
-0.390761 1.08584 -8.74238 -0.0370146 0.791879 0.609556 154 99 77
0.428553 1.09912 -8.71562 0.0608785 0.793764 0.605171 179 122 96
0.470123 1.12984 -8.77823 -0.305855 0.729432 0.611867 187 125 97
0.532959 1.12403 -8.79108 -0.312215 0.609943 0.728348 188 125 98
0.51659 1.1191 -8.78863 -0.280295 0.615662 0.736475 188 124 97
0.577002 1.10875 -8.73314 -0.0767506 0.698067 0.711907 182 121 94
0.632769 1.11071 -8.74442 -0.346032 0.54996 0.760135 186 127 100
0.8272 1.10214 -8.6888 -0.509482 0.370282 0.776736 187 125 98
0.870362 1.10799 -8.71635 -0.458843 0.480987 0.747071 179 123 98
-2.26665 0.921188 -8.45512 0.0249067 -0.884186 0.466471 222 109 71
-2.21368 0.929935 -8.47583 0.686346 -0.654838 0.316412 218 108 69
-2.21023 0.928704 -8.46488 0.716721 -0.622765 0.313807 218 108 69
-1.70968 0.957734 -8.59681 0.750585 0.478524 0.455673 131 71 60
-1.66027 0.975 -8.61871 0.720375 0.508482 0.471705 121 62 46
-1.5083 0.989322 -8.64092 0.311928 0.774169 0.550784 150 74 56
-1.3458 0.999908 -8.63349 0.224472 0.793006 0.566352 174 86 62
-1.11685 0.976441 -8.58226 0.155929 0.751542 0.640992 157 85 62
-1.08074 0.997374 -8.61004 0.559693 0.494644 0.664884 152 83 62
-1.07348 0.976791 -8.58319 0.0909084 0.793308 0.601995 155 86 65
-0.806993 1.02125 -8.65518 0.200702 0.763875 0.613363 170 90 66
-0.753112 1.00433 -8.63285 -0.188941 0.616187 0.764602 159 92 67
-0.676671 1.03986 -8.69649 -0.0820961 0.784952 0.614093 175 100 78
-0.614058 1.02171 -8.66906 0.0279101 0.741562 0.670304 161 94 71
-0.494559 1.00395 -8.61297 -0.412119 0.624497 0.663446 161 99 76
-0.408795 1.0157 -8.64505 -0.0833917 0.76803 0.634961 159 101 80
-0.214824 1.00932 -8.58992 -0.146462 0.777698 0.611339 172 107 82
0.470018 1.0762 -8.66924 0.0603562 0.794883 0.603754 184 123 97
0.573467 1.06186 -8.66383 -0.0265198 0.797832 0.602297 184 124 97
-3.70508 1.10676 -11.1912 -0.262958 0.627987 0.732452 217 102 69
-3.68458 1.11764 -11.2268 -0.14367 0.717604 0.681472 219 106 67
-2.20608 0.893619 -8.53037 0.912273 -0.263576 0.313506 134 59 43
-1.74884 0.946513 -8.59368 0.631186 0.608799 0.480592 137 69 58
-1.68662 0.940564 -8.54474 0.49329 0.0581674 0.867918 130 70 59
-1.65473 0.941394 -8.57464 -0.0821723 0.770222 0.63246 120 63 47
-1.58269 0.954798 -8.57441 0.670761 0.562701 0.483164 133 70 54
-1.45136 0.950182 -8.59008 -0.109831 0.764263 0.635483 147 76 56
-1.38448 0.935255 -8.55133 -0.0117474 0.795673 0.605612 150 76 56
-1.39267 0.952711 -8.56765 0.0510623 0.769978 0.636025 152 77 56
-1.03082 0.962078 -8.58965 0.0193182 0.800878 0.598515 145 81 63
-0.970439 0.980326 -8.60724 0.0516276 0.76557 0.641278 153 86 64
-0.910517 0.958765 -8.57684 0.0257483 0.768688 0.639105 166 90 70
-0.693836 0.977967 -8.61512 0.00979108 0.801182 0.598341 165 93 68
-0.633746 0.965921 -8.59364 -0.183069 0.757169 0.627042 170 96 71
-0.552741 0.996705 -8.62412 -0.0640564 0.792019 0.607126 165 101 78
-0.14037 0.97939 -8.52728 0.660562 0.469098 0.586178 165 106 83
0.394354 1.01303 -8.59447 -0.016585 0.800612 0.598953 179 120 95
0.46709 1.00537 -8.58479 -0.185049 0.781473 0.595866 184 123 98
0.526797 1.02927 -8.60744 -0.192222 0.779331 0.5964 186 123 98
0.778738 1.0111 -8.57631 -0.732278 0.361486 0.577146 195 126 98
0.974641 1.03008 -8.59402 -0.539121 0.218834 0.813302 172 121 95
-4.20496 1.03749 -11.1914 0.640647 0.67003 0.375008 222 104 78
-4.11713 1.05352 -11.2244 0.372135 0.782008 0.499979 219 87 75
-3.85296 1.08161 -11.2214 -0.303201 0.547136 0.780199 219 87 74
-3.76368 1.05438 -11.1467 -0.277692 0.519718 0.807948 213 82 66
-3.62743 1.08452 -11.1548 -0.472656 0.355975 0.80615 224 105 73
-2.20919 0.853781 -8.47547 -0.508914 -0.423715 0.749314 106 51 45
-1.76357 0.886286 -8.49134 0.0667673 0.806645 0.587253 137 67 51
-1.6839 0.9011 -8.48204 0.0683096 0.806053 0.587888 139 73 60
-1.64097 0.880239 -8.50928 -0.378239 0.57801 0.723077 129 66 50
-1.56784 0.903559 -8.48922 0.372538 0.599743 0.708183 134 70 53
-1.51224 0.907477 -8.52034 0.324334 0.775142 0.542183 135 68 51
-1.32424 0.914378 -8.52625 0.107463 0.795738 0.596031 159 79 55
-1.32094 0.913708 -8.52375 0.118935 0.800661 0.587193 160 79 54
-1.02943 0.91723 -8.52307 0.0877768 0.807798 0.582887 166 93 73
-0.97271 0.94063 -8.5709 0.10669 0.761734 0.639045 148 87 66
-0.909645 0.91497 -8.51962 -0.00712215 0.801316 0.598198 165 92 72
-0.750707 0.917733 -8.51065 -0.0678287 0.793758 0.60444 176 92 67
-0.685244 0.931778 -8.52865 -0.155642 0.76708 0.622385 161 90 64
-0.685244 0.931778 -8.52865 -0.155642 0.76708 0.622385 161 90 64
-0.685244 0.931778 -8.52865 -0.155642 0.76708 0.622385 161 90 64
-0.618787 0.914977 -8.47523 -0.0765645 0.706599 0.70346 166 95 69
-0.5754 0.941501 -8.52654 -0.229958 0.739327 0.632862 168 98 71
-0.451042 0.912646 -8.4584 -0.380622 0.65557 0.652192 163 100 75
0.000358875 0.95806 -8.54974 -0.0565776 0.799979 0.597355 154 102 81
0.333454 0.974761 -8.55338 -0.201494 0.454545 0.867634 178 119 93
0.333473 0.974746 -8.55321 -0.204646 0.447598 0.870503 178 119 93
0.376196 0.97596 -8.55626 -0.121725 0.266351 0.956159 180 120 93
0.416418 0.976216 -8.55393 0.56549 0.535596 0.627182 176 117 91
0.467082 0.961099 -8.52263 0.080084 0.799055 0.5959 184 123 97
-4.28172 0.988514 -11.0427 0.715635 0.595698 0.364707 222 97 78
-4.16775 0.996097 -11.1277 0.968072 -0.14583 0.203889 220 104 76
-4.16051 1.00778 -11.2093 -0.462208 0.314428 0.829155 218 103 79
-4.07105 0.998098 -11.079 0.751395 0.568492 0.334996 216 101 79
-4.03241 1.00143 -11.1331 0.288048 0.337972 0.895993 216 96 78
-3.9072 1.01696 -11.1567 -0.366003 0.507706 0.779921 203 74 60
-3.79802 0.986025 -11.0293 -0.348585 0.535142 0.769488 212 77 64
-3.71972 1.03583 -11.1813 -0.472315 0.349949 0.808983 219 78 69
-3.64434 1.03705 -11.1493 -0.396914 0.485204 0.779126 228 90 82
-1.75491 0.841299 -8.40992 -0.262133 0.671836 0.692765 129 64 49
-1.68516 0.858251 -8.4259 -0.135892 0.750327 0.646949 142 70 52
-1.68569 0.858246 -8.42743 -0.179306 0.727725 0.662016 142 70 52
-1.60247 0.870854 -8.51862 -0.626788 -0.207867 0.750952 128 65 49
-1.50453 0.861612 -8.42766 0.381943 0.699361 0.604164 134 71 52
-1.48025 0.868686 -8.46571 0.0531264 0.80774 0.58714 143 73 55
-1.43845 0.863412 -8.44674 0.24232 0.798538 0.551016 141 70 52
-1.32306 0.871545 -8.47455 0.101498 0.795291 0.597671 157 82 61
-1.2591 0.886517 -8.50307 -0.0493432 0.786798 0.615235 175 85 62
-1.10366 0.861083 -8.45637 -0.0981129 0.783049 0.614173 154 84 64
-0.977024 0.895717 -8.51719 0.380609 0.740774 0.553525 154 87 66
-0.909542 0.871553 -8.46094 -0.0203608 0.802229 0.596669 156 88 66
-0.616641 0.872508 -8.42442 -0.346541 0.673663 0.652753 163 93 67
-0.568973 0.897325 -8.45708 0.334558 0.748529 0.572516 171 97 68
-0.450769 0.870124 -8.40142 0.0384833 0.789897 0.612031 165 97 71
-0.293097 0.88109 -8.42007 -0.0691665 0.800411 0.595447 157 103 79
