ply
format ascii 1.0
element vertex 720
property float x
property float y
property float z
property float nx
property float ny
property float nz
property uchar diffuse_red
property uchar diffuse_green
property uchar diffuse_blue
end_header
-0.650878 -1.20795 -3.79585 -0.187739 0.699362 0.689671 208 63 50
-0.653255 -1.20922 -3.79366 -0.198942 0.695125 0.690813 203 61 46
-0.585621 -1.20183 -3.79316 0.28977 0.000475809 0.957096 208 62 46
-0.553247 -1.20894 -3.78933 0.22981 0.569761 0.789025 187 63 38
-0.555607 -1.2022 -3.7987 0.434943 0.710344 0.553385 213 66 55
-0.545664 -1.20699 -3.79603 0.168423 0.435715 0.884187 195 61 41
-0.538884 -1.20725 -3.79684 -0.0834364 0.662647 0.74427 195 64 39
-0.532572 -1.20588 -3.78719 -0.434751 0.52328 0.732919 185 66 35
-0.476791 -1.20084 -3.79578 -0.22689 -0.394214 0.890571 169 58 32
-0.462086 -1.21006 -3.79829 -0.269405 0.738514 0.618076 182 80 47
-0.442566 -1.20215 -3.79676 -0.11831 0.955741 0.269372 189 82 51
-0.272324 -1.19902 -3.77431 -0.0751677 0.594923 0.80026 213 92 47
-0.262623 -1.20428 -3.77862 -0.370926 0.875874 0.308639 203 97 41
-0.131292 -1.20092 -3.77704 -0.374149 0.846978 0.377679 197 90 37
-0.139072 -1.19956 -3.76779 -0.0688301 0.790949 0.607998 194 92 42
-0.110013 -1.19812 -3.77274 -0.0183994 0.704549 0.709417 197 94 43
-0.0986542 -1.19964 -3.76377 -0.568764 0.450101 0.688416 190 75 29
-0.0939714 -1.19586 -3.77663 -0.573698 0.73634 0.358712 198 85 39
-0.0890096 -1.20074 -3.75804 -0.691334 0.517435 0.5043 190 74 31
-0.0784866 -1.19678 -3.76497 -0.475382 0.614539 0.629566 192 79 32
-0.0844028 -1.19753 -3.77762 -0.48862 0.823516 0.288223 197 83 38
-0.0735535 -1.19841 -3.78589 -0.612564 0.687319 0.390331 195 84 37
-0.0553325 -1.19452 -3.77143 -0.541781 0.776006 0.322936 198 88 39
-0.0450627 -1.19728 -3.76548 -0.383806 0.336455 0.859937 193 82 33
-0.034675 -1.19889 -3.7648 -0.430594 0.479731 0.764491 193 79 33
-0.0236517 -1.19832 -3.75766 -0.402379 -0.0374921 0.914705 193 80 33
0.00631445 -1.19137 -3.74842 -0.558376 0.35506 0.749766 200 88 37
0.0218942 -1.19698 -3.74409 -0.156673 0.94303 0.293509 201 91 42
0.0377684 -1.19453 -3.75632 -0.387173 0.892255 0.232333 202 96 44
0.0529358 -1.18667 -3.74011 0.117873 0.944685 0.306067 197 89 34
0.275261 -1.19099 -3.73351 -0.600739 0.490583 0.631222 208 109 61
0.286614 -1.18725 -3.73601 0.0527698 0.863397 0.501757 200 102 51
0.309923 -1.19215 -3.73227 0.0340165 0.954783 0.295351 201 101 46
0.318144 -1.18797 -3.73612 -0.0140812 0.838422 0.544839 207 108 52
0.375202 -1.18603 -3.71535 0.0752521 0.905587 0.417431 203 87 49
0.404408 -1.18155 -3.71808 -0.26006 0.842401 0.471942 233 70 68
0.483971 -1.18262 -3.71216 -0.641839 0.625421 0.443723 191 90 40
0.690512 -1.17754 -3.69514 0.642325 -0.0607259 0.764023 197 92 44
0.848176 -1.17397 -3.68957 -0.701718 0.258622 0.663857 208 105 52
0.868297 -1.17662 -3.67516 -0.172889 0.832859 0.52579 207 109 57
0.878631 -1.17277 -3.67949 -0.15235 0.805511 0.572662 196 100 47
0.888826 -1.1762 -3.67358 -0.0472281 0.820608 0.569536 193 97 44
0.958212 -1.17028 -3.65273 0.0491656 0.067375 0.996516 209 113 63
0.969491 -1.16808 -3.65885 0.133552 0.84972 0.510038 206 111 56
0.988152 -1.16666 -3.67042 0.15646 0.774544 0.612864 195 99 45
0.99478 -1.1649 -3.65558 -0.504259 0.404717 0.762841 186 87 39
1.00805 -1.16213 -3.6361 -0.666125 0.671585 0.324425 181 51 28
1.01426 -1.15915 -3.62427 -0.557229 0.716343 0.419939 209 54 45
1.02262 -1.15997 -3.61393 -0.467795 0.701831 0.537217 228 88 64
1.03221 -1.15802 -3.60888 -0.70223 0.403799 0.586361 220 105 60
-1.96372 -1.25585 -3.94194 -0.412801 0.405534 0.81556 188 90 58
-1.94348 -1.25733 -3.92785 -0.304335 0.646904 0.699211 192 97 59
-1.93258 -1.25398 -3.94537 -0.113079 0.774179 0.622784 189 94 54
-1.9152 -1.25691 -3.93169 -0.155891 0.822177 0.54747 190 93 56
-1.88758 -1.24837 -3.93253 -0.33288 0.6744 0.659072 175 77 44
-1.87349 -1.25203 -3.92373 -0.359252 0.403665 0.841423 182 81 51
-1.8604 -1.25399 -3.92067 -0.183813 0.627537 0.756578 185 81 53
-1.85478 -1.25146 -3.93352 -0.0122577 0.735367 0.677558 189 87 62
-1.59172 -1.24017 -3.89827 0.226183 0.88615 0.404451 183 87 45
-1.57927 -1.24762 -3.89781 -0.0984119 0.941489 0.322356 189 90 51
-1.56808 -1.24528 -3.90436 0.210433 0.757737 0.617699 193 96 60
-1.55297 -1.24985 -3.89983 -0.0258904 0.956856 0.289406 190 96 58
-1.54255 -1.24294 -3.9079 -0.352825 0.794101 0.494893 175 74 44
-1.49975 -1.24638 -3.89747 0.164727 0.937862 0.305418 193 93 55
-1.47127 -1.24002 -3.89454 -0.230509 0.884503 0.40561 193 96 57
-1.45491 -1.24134 -3.88495 -0.321256 0.831161 0.453834 197 99 59
-1.32398 -1.242 -3.87643 -0.315865 0.826174 0.466547 178 79 48
-0.929714 -1.21148 -3.77333 0.455181 0.822439 0.341179 207 62 45
-0.916985 -1.20985 -3.7789 0.19744 0.878265 0.435508 221 69 57
-0.905863 -1.21543 -3.77476 0.147013 0.882243 0.447253 212 57 49
-0.886217 -1.2072 -3.7724 0.088122 0.874562 0.47684 225 62 59
-0.848361 -1.20641 -3.77331 -0.440381 0.230086 0.867828 220 84 61
-0.837595 -1.2122 -3.76952 0.214154 0.87525 0.433677 212 84 50
-0.826385 -1.20659 -3.77221 -0.30247 0.82725 0.473465 202 92 48
-0.814044 -1.20626 -3.77281 -0.252163 0.267427 0.929998 197 90 50
-0.803291 -1.20984 -3.76751 -0.0311374 0.627207 0.77823 212 88 62
-0.728391 -1.21002 -3.78574 0.0478425 0.741555 0.669185 225 79 67
-0.694104 -1.21408 -3.7882 -0.123784 -0.247316 0.960996 200 68 51
-0.678564 -1.21904 -3.78829 0.528489 -0.228068 0.817731 186 63 37
-0.667109 -1.21778 -3.78972 0.172002 0.195936 0.965414 187 61 36
-0.654725 -1.21576 -3.78777 -0.20179 0.131417 0.970572 184 59 34
-0.649098 -1.21712 -3.78607 -0.373823 0.537724 0.755718 182 58 33
-0.639359 -1.20993 -3.78725 -0.0465388 -0.121948 0.991445 195 55 38
-0.563789 -1.21362 -3.787 0.202341 0.538636 0.817881 189 73 42
-0.553474 -1.21792 -3.78383 -0.378052 0.457972 0.804574 184 81 47
-0.542135 -1.21276 -3.78509 -0.393025 0.545927 0.739929 183 75 42
-0.540989 -1.21693 -3.77692 -0.393185 0.653139 0.647159 189 87 47
-0.537874 -1.21518 -3.78919 -0.384294 0.475189 0.791526 186 78 41
-0.519549 -1.2096 -3.75391 0.335654 0.891843 0.303237 197 94 47
-0.506148 -1.21206 -3.77877 0.274056 0.902188 0.333091 202 100 56
-0.495123 -1.21242 -3.78586 0.143965 0.911365 0.385601 201 98 56
-0.481935 -1.21233 -3.7973 -0.243031 0.639394 0.72946 182 77 45
-0.458943 -1.21594 -3.78154 -0.372122 0.793258 0.481941 191 82 48
-0.275048 -1.20669 -3.7539 -0.321453 0.90009 0.294119 219 90 56
-0.253131 -1.21006 -3.78388 0.433356 0.439888 0.786575 201 98 44
-0.26159 -1.21141 -3.7627 -0.00586132 0.962129 0.272533 212 102 47
-0.2099 -1.20838 -3.7736 -0.527874 0.667755 0.524836 203 94 37
-0.14008 -1.20706 -3.75607 0.0577879 0.858083 0.51025 182 77 31
-0.131478 -1.20816 -3.76891 0.0533763 0.839562 0.540635 197 95 48
-0.130194 -1.20395 -3.76246 0.235418 0.79545 0.558424 195 91 44
-0.12099 -1.20993 -3.75864 -0.230458 0.848811 0.475825 194 90 46
-0.109532 -1.20448 -3.76392 -0.052275 0.914026 0.402273 191 83 39
-0.0977021 -1.20685 -3.7583 -0.0385862 0.926733 0.373735 184 72 28
-0.0855933 -1.20792 -3.74296 -0.473327 0.554749 0.684263 185 73 29
-0.0860903 -1.20875 -3.75099 0.0951804 0.84537 0.525633 185 72 26
-0.0871194 -1.20182 -3.75622 -0.46955 0.654129 0.592991 187 72 29
-0.0814988 -1.20578 -3.75829 -0.644676 0.382169 0.662072 185 71 26
-0.0709213 -1.20326 -3.76666 -0.328055 0.911714 0.247301 193 88 37
-0.0635044 -1.20682 -3.74406 0.0865387 0.928521 0.361053 188 83 35
-0.0636385 -1.20125 -3.75687 0.0659907 0.90832 0.413038 191 88 38
-0.0506222 -1.20477 -3.75119 0.161616 0.677927 0.717144 193 85 37
-0.0381227 -1.2073 -3.74186 0.212751 0.893175 0.396202 194 86 37
0.00175041 -1.2028 -3.74289 -0.601727 0.172108 0.779938 189 80 30
0.0122505 -1.19888 -3.73569 -0.653985 0.149199 0.741649 194 86 38
0.0374874 -1.20029 -3.7402 -0.362214 0.857028 0.366476 202 95 41
0.0349867 -1.19712 -3.73587 -0.359442 0.806174 0.469985 204 96 40
0.0466113 -1.20287 -3.73423 -0.316067 0.909431 0.270255 205 96 46
0.0603318 -1.19824 -3.73365 0.466359 0.785792 0.406251 203 92 36
0.0654847 -1.19805 -3.73765 -0.0649822 0.85192 0.519625 202 91 37
0.254755 -1.19635 -3.72303 0.415668 0.314531 0.853399 204 101 52
0.266685 -1.19739 -3.72348 0.382363 0.219502 0.897562 205 103 50
0.303692 -1.19619 -3.72729 0.0176867 0.803601 0.594906 205 105 50
0.300438 -1.19575 -3.72813 -0.0189761 0.814969 0.579194 205 105 51
0.310387 -1.19867 -3.72374 -0.0132514 0.762435 0.64693 205 104 49
0.376939 -1.19093 -3.70746 -0.0174978 0.807173 0.590055 201 79 44
0.375617 -1.19029 -3.70466 0.290697 0.804285 0.518287 203 86 46
0.378067 -1.19575 -3.69815 0.145843 0.896541 0.418263 199 74 39
0.385081 -1.19567 -3.70489 0.36214 0.800144 0.478147 192 49 28
0.394951 -1.19091 -3.70815 -0.314325 0.73287 0.603408 205 49 38
0.399188 -1.19325 -3.69866 -0.361404 0.790038 0.495204 211 51 42
0.413918 -1.19187 -3.6979 0.0725281 0.874205 0.48011 241 79 75
0.770498 -1.18747 -3.67088 -0.162222 0.677353 0.71755 203 103 45
0.878907 -1.17962 -3.66907 -0.0635338 0.843421 0.533483 207 112 59
0.898416 -1.1822 -3.6538 0.115189 0.876121 0.468127 208 109 60
0.905137 -1.17869 -3.66098 0.0960875 0.915378 0.39096 202 105 51
0.916217 -1.18155 -3.65451 0.0184622 0.900853 0.433732 204 106 52
0.932411 -1.1776 -3.64124 0.0438462 0.724021 0.688383 205 105 60
0.941626 -1.17374 -3.64437 -0.390884 0.782723 0.484308 206 108 62
0.954397 -1.17903 -3.65177 0.532181 0.587972 0.609156 205 107 59
0.985282 -1.17576 -3.65237 -0.245476 0.945091 0.215741 203 107 54
0.994053 -1.1727 -3.63995 -0.730895 0.531696 0.427892 188 84 42
1.00442 -1.17029 -3.62704 -0.351354 0.829237 0.434645 179 49 25
1.01333 -1.16874 -3.61394 -0.609497 0.634108 0.475836 220 63 60
1.02285 -1.16814 -3.60399 -0.274358 0.796122 0.539367 230 89 66
-2.20647 -1.27262 -3.97656 -0.231186 -0.126459 0.964656 174 75 56
-1.95636 -1.26589 -3.92256 -0.252982 0.728951 0.636105 181 83 52
-1.92975 -1.26335 -3.92432 -0.268735 0.841046 0.469493 191 94 55
-1.90246 -1.25851 -3.92875 -0.3659 0.696284 0.617499 186 91 56
-1.89079 -1.26377 -3.92301 -0.302207 0.518676 0.799779 190 91 62
-1.85011 -1.26033 -3.91758 -0.176178 0.86194 0.475416 184 78 55
-1.82005 -1.25761 -3.91811 -0.167236 0.890709 0.422693 186 85 63
-1.80561 -1.26119 -3.91145 -0.187148 0.885757 0.424748 187 91 60
-1.7582 -1.25956 -3.90344 -0.365568 0.569366 0.73633 191 94 53
-1.56861 -1.254 -3.89492 0.0392731 0.961999 0.270213 197 98 59
-1.54402 -1.25687 -3.90055 -0.344145 0.601862 0.720643 191 96 64
-1.53918 -1.25657 -3.89362 0.23322 0.853727 0.465575 192 97 65
-1.52138 -1.25251 -3.90311 -0.060516 0.954386 0.29238 181 80 48
-1.50366 -1.25473 -3.88595 -0.0967051 0.830084 0.549189 189 92 53
-1.48294 -1.24638 -3.88476 -0.295878 0.862385 0.41079 195 97 59
-1.46977 -1.24918 -3.87673 0.0591416 0.531333 0.845096 198 100 66
-1.4574 -1.25299 -3.87086 -0.291774 0.625295 0.723792 195 96 64
-0.952939 -1.22463 -3.76343 -0.504335 0.333516 0.7965 186 85 46
-0.943249 -1.22162 -3.76095 -0.491619 0.479653 0.726804 186 86 47
-0.932899 -1.2236 -3.76138 -0.472803 0.561461 0.679132 184 83 44
-0.920779 -1.21855 -3.77279 -0.0866403 -0.0226728 0.995982 198 60 39
-0.912318 -1.22177 -3.76162 -0.475925 0.560563 0.677691 186 74 38
-0.901088 -1.22053 -3.76789 0.0805714 0.856135 0.510433 193 51 37
-0.846718 -1.21765 -3.76365 -0.194099 0.747384 0.635407 230 73 61
-0.835105 -1.22042 -3.75711 0.0958508 0.540685 0.835747 223 75 57
-0.826726 -1.21568 -3.76408 -0.0928124 0.707092 0.701004 211 80 52
-0.802647 -1.21792 -3.75915 0.0338072 0.62676 0.778479 224 81 69
-0.78333 -1.22001 -3.75283 0.0625475 0.560573 0.825739 210 71 49
-0.774528 -1.2168 -3.75888 -0.275804 0.901652 0.3331 216 70 54
-0.697041 -1.22608 -3.78887 -0.317283 -0.282099 0.905401 165 58 30
-0.659927 -1.22518 -3.78546 -0.3764 0.592866 0.711922 178 67 35
-0.616638 -1.22298 -3.77898 -0.278056 -0.0635666 0.958459 225 73 63
-0.563676 -1.22233 -3.78105 -0.455446 0.438369 0.774856 188 88 48
-0.542903 -1.21783 -3.76358 -0.306205 0.800183 0.515699 193 93 47
-0.542226 -1.2212 -3.7665 -0.395179 0.634206 0.664542 196 95 50
-0.534192 -1.21391 -3.74024 -0.444254 0.599739 0.665546 199 98 50
-0.534192 -1.21391 -3.74024 -0.444254 0.599739 0.665546 199 98 50
-0.540924 -1.21356 -3.7407 -0.435109 0.635758 0.637567 196 97 50
-0.526475 -1.21482 -3.7478 -0.417253 0.619066 0.665325 201 99 50
-0.522592 -1.21572 -3.74678 -0.453817 0.376554 0.807625 201 99 50
-0.481876 -1.22261 -3.78514 -0.529752 0.58903 0.610252 201 98 58
-0.469747 -1.22277 -3.77342 -0.457695 0.601949 0.654349 202 96 53
-0.304024 -1.22409 -3.7632 -0.611967 0.255949 0.748323 205 92 48
-0.293097 -1.21596 -3.76173 -0.153701 0.923017 0.352725 214 76 50
-0.27188 -1.2128 -3.74373 -0.574935 0.477227 0.664608 221 84 58
-0.2629 -1.21795 -3.74808 -0.354238 0.853373 0.382453 218 91 54
-0.249011 -1.21423 -3.75773 -0.418104 0.776554 0.471331 205 98 45
-0.198098 -1.21411 -3.7587 0.222378 0.913642 0.340303 203 98 47
-0.161268 -1.21887 -3.75432 -0.100723 0.834132 0.54229 196 97 47
-0.138885 -1.2137 -3.74425 -0.12671 0.845961 0.517971 184 81 33
-0.140421 -1.21435 -3.74567 -0.0945344 0.693412 0.714313 184 81 34
-0.130782 -1.21783 -3.74161 0.00360412 0.820165 0.572116 187 82 34
-0.130886 -1.21775 -3.74175 0.0034893 0.819124 0.573607 187 82 34
-0.130987 -1.21062 -3.75087 0.141791 0.737739 0.660028 185 81 36
-0.130314 -1.21077 -3.75293 0.143413 0.765561 0.627175 186 82 37
-0.131014 -1.21186 -3.75394 0.149384 0.865266 0.478538 185 82 37
-0.120415 -1.21487 -3.74779 0.105487 0.865358 0.489927 187 81 37
-0.121277 -1.2144 -3.74573 -0.0923987 0.80345 0.588159 187 81 36
-0.110111 -1.21216 -3.75154 0.199147 0.922921 0.32948 193 82 39
-0.109337 -1.21765 -3.74299 -0.0339707 0.778999 0.626104 187 74 30
-0.096622 -1.21639 -3.74042 -0.0652014 0.829607 0.554528 191 81 37
-0.0503453 -1.21048 -3.73909 0.0476954 0.935099 0.351162 194 79 32
-0.049974 -1.21159 -3.73451 0.369711 0.826537 0.424442 194 80 34
-0.0384329 -1.21202 -3.72588 0.367096 0.856077 0.363831 195 88 39
-0.0267638 -1.21215 -3.73594 0.407832 0.818123 0.405399 196 90 35
0.0140085 -1.20616 -3.73307 -0.623125 0.315341 0.715734 189 83 35
0.0252065 -1.20508 -3.72943 -0.30438 0.815324 0.492544 193 86 36
0.0372327 -1.20689 -3.72714 -0.266856 0.68719 0.67569 198 91 42
0.0467461 -1.20987 -3.72328 -0.297962 0.502208 0.811792 201 91 43
0.0557921 -1.20381 -3.72397 0.048018 0.416404 0.907911 205 95 43
0.0656606 -1.20493 -3.7273 -0.157776 0.595194 0.787941 203 94 41
0.207615 -1.20605 -3.72142 -0.367325 0.703847 0.608006 202 104 57
0.2176 -1.20844 -3.71828 -0.3634 0.734265 0.573407 199 98 47
0.253098 -1.20268 -3.71473 0.510568 0.583834 0.631236 198 95 48
0.289414 -1.20706 -3.71372 -0.0797837 0.956496 0.280623 212 115 56
0.312417 -1.20246 -3.71131 0.0127202 0.813917 0.580842 211 109 54
0.320018 -1.20795 -3.70747 -0.0144538 0.704654 0.709404 210 108 53
0.378517 -1.19935 -3.69078 0.224182 0.88542 0.407152 198 74 40
0.405029 -1.2005 -3.68421 0.0497351 0.856909 0.513063 222 60 57
0.404733 -1.19542 -3.69467 0.0108072 0.774787 0.63213 223 62 58
0.750393 -1.19682 -3.66298 -0.22007 0.737935 0.637982 195 96 45
0.760893 -1.19203 -3.66695 -0.102615 0.747031 0.656822 194 93 38
0.768952 -1.19615 -3.66094 -0.0970969 0.784503 0.612476 195 94 40
0.770277 -1.19488 -3.66181 -0.144128 0.698756 0.700691 196 94 41
0.778799 -1.19242 -3.66523 -0.0554709 0.792574 0.607247 202 101 48
0.788774 -1.1955 -3.66031 0.284358 0.76752 0.574503 198 101 51
0.798645 -1.19254 -3.66537 0.173321 0.839834 0.51443 206 107 55
0.878489 -1.18978 -3.65111 -0.202581 0.616771 0.760628 202 102 52
0.898682 -1.18918 -3.64539 0.0137855 0.801292 0.598114 205 106 60
0.909003 -1.18621 -3.65129 0.0532606 0.855808 0.514544 206 108 54
0.905799 -1.18482 -3.65094 0.0334193 0.861745 0.506239 208 110 56
0.917457 -1.18995 -3.64586 -0.00975925 0.843865 0.536467 206 110 60
0.923491 -1.18143 -3.64093 0.107157 0.850334 0.515218 205 108 59
0.964387 -1.18632 -3.64419 0.402103 0.756174 0.51625 202 103 51
0.974115 -1.18241 -3.64822 -0.0171943 0.742848 0.66924 198 99 46
0.98447 -1.18336 -3.6363 -0.042618 0.922786 0.38295 196 96 51
0.964168 -1.17752 -3.60142 0.221979 0.882655 0.414301 189 100 48
0.989267 -1.18076 -3.61062 0.0785855 0.865027 0.495534 190 66 36
1.00311 -1.17918 -3.61496 -0.394018 0.807598 0.438788 190 51 37
1.01374 -1.17607 -3.60569 -0.0768086 0.876829 0.474627 217 59 56
1.02383 -1.17683 -3.59831 -0.114113 0.796145 0.594248 229 88 69
1.03316 -1.16933 -3.59769 -0.212063 0.814595 0.539874 199 86 48
1.03455 -1.17852 -3.59392 -0.276805 0.551593 0.786844 219 100 57
-1.94029 -1.26862 -3.91153 -0.301212 0.687169 0.661113 179 80 47
-1.86932 -1.26682 -3.91657 -0.420059 0.316647 0.850462 186 82 55
-1.85025 -1.26985 -3.90107 -0.213785 0.827154 0.519723 187 83 51
-1.81776 -1.26615 -3.89958 -0.200452 0.843552 0.498235 176 77 46
-1.54304 -1.26638 -3.88398 -0.306234 0.849133 0.430342 193 97 56
-1.54302 -1.26867 -3.88778 -0.304127 0.644575 0.701448 194 98 57
-1.52965 -1.25919 -3.88926 -0.38741 0.597149 0.702372 189 91 57
-1.51696 -1.26161 -3.88129 -0.277819 0.730509 0.623838 190 94 60
-1.50448 -1.26576 -3.87829 -0.189744 0.764217 0.616417 186 89 52
-1.48965 -1.25666 -3.87442 -0.335639 0.673857 0.658227 188 91 53
-1.46923 -1.26 -3.86358 -0.0205964 0.921305 0.388295 189 91 55
-1.46915 -1.25859 -3.8666 -0.0613964 0.68399 0.726903 186 87 54
-1.44442 -1.2559 -3.86147 -0.205278 0.628442 0.750281 200 101 64
-1.4329 -1.26054 -3.85811 -0.0314409 0.903865 0.426661 202 102 65
-0.935486 -1.23077 -3.75477 -0.255601 0.0989698 0.961703 184 79 44
-0.922139 -1.23194 -3.75261 -0.390566 0.547038 0.740411 189 75 45
-0.911728 -1.23097 -3.7493 -0.359947 0.702403 0.614059 192 71 44
-0.900764 -1.22657 -3.75321 -0.0604352 0.909635 0.410988 190 67 44
-0.856194 -1.22585 -3.74109 -0.267449 0.682318 0.680377 225 66 58
-0.857438 -1.22847 -3.74873 -0.262683 0.848408 0.459567 227 67 59
-0.849258 -1.22947 -3.76269 -0.516853 0.414477 0.749047 242 83 75
-0.832547 -1.22912 -3.74863 -0.109351 0.462275 0.879968 215 71 54
-0.825224 -1.22517 -3.75949 0.55519 -0.0376338 0.830871 217 71 57
-0.807393 -1.22697 -3.75449 0.560769 0.289506 0.775709 204 67 48
-0.793651 -1.22352 -3.75122 0.371647 0.64076 0.671792 206 72 49
-0.78538 -1.23212 -3.75426 0.406688 0.023188 0.913273 193 74 41
-0.70183 -1.23456 -3.78505 -0.583009 0.570568 0.578405 154 63 32
-0.689283 -1.23407 -3.77239 -0.608619 0.453952 0.650777 167 69 37
-0.6561 -1.2309 -3.76845 -0.560474 0.287365 0.776718 190 82 47
-0.647931 -1.23387 -3.76972 -0.524852 0.713027 0.464891 201 76 52
-0.591831 -1.23567 -3.774 -0.224518 -0.311314 0.923404 186 82 42
-0.562446 -1.22992 -3.77968 -0.604308 0.570531 0.556153 197 98 50
-0.281752 -1.2264 -3.74394 -0.325142 0.526319 0.785666 213 68 48
-0.270647 -1.22598 -3.73693 -0.655295 0.439938 0.614038 231 78 66
-0.250937 -1.22042 -3.74786 -0.388202 0.827682 0.405267 211 97 45
-0.160282 -1.22784 -3.75169 -0.448453 0.750727 0.485077 202 97 45
-0.150938 -1.22022 -3.74386 -0.159801 0.801887 0.575709 197 98 47
-0.147765 -1.22853 -3.74794 -0.637608 0.245936 0.730049 205 99 46
-0.140457 -1.22256 -3.73812 -0.151235 0.651799 0.74316 197 93 42
-0.13126 -1.22529 -3.73163 0.0207111 0.835997 0.548343 196 91 38
-0.120904 -1.22188 -3.73578 -0.0321269 0.877425 0.478636 184 74 26
-0.120228 -1.221 -3.73587 -0.0939554 0.853361 0.512784 184 73 26
-0.12044 -1.2212 -3.73666 -0.0515709 0.852047 0.520919 183 73 26
-0.109703 -1.2259 -3.73599 -0.404702 0.827699 0.388756 183 68 22
-0.0873252 -1.2181 -3.73605 -0.434261 0.728228 0.53019 194 83 36
-0.0752314 -1.21809 -3.73067 -0.618313 0.681172 0.392039 199 87 35
-0.0774984 -1.21926 -3.73034 -0.392076 0.693207 0.604765 195 84 37
-0.0653819 -1.21837 -3.72584 -0.452749 0.840873 0.296565 198 85 35
-0.0503495 -1.21651 -3.72196 0.447287 0.782309 0.433505 194 86 37
-0.0418883 -1.21688 -3.72631 0.459655 0.775407 0.432968 192 87 37
-0.0267137 -1.21894 -3.71986 0.23264 0.884334 0.404763 198 93 42
-0.00271086 -1.21677 -3.72665 -0.59388 0.726335 0.346041 202 99 41
0.00767361 -1.21737 -3.71694 -0.462568 0.852975 0.241793 201 97 40
0.0181645 -1.21978 -3.72962 -0.53141 -0.203031 0.822424 196 90 39
0.0557311 -1.21365 -3.7195 -0.222792 0.422324 0.878639 203 96 46
0.217913 -1.21906 -3.70923 -0.645267 0.552573 0.527536 207 108 59
0.281953 -1.21604 -3.70155 -0.104481 0.905005 0.412371 202 102 52
0.28888 -1.21367 -3.70362 -0.00228527 0.866294 0.499529 209 108 55
0.295124 -1.21358 -3.70749 -0.104125 0.944157 0.312611 213 112 58
0.30089 -1.2147 -3.69795 -0.0315662 0.83794 0.544849 212 112 59
0.311536 -1.21092 -3.70281 -0.00783566 0.637698 0.770247 216 115 61
0.328806 -1.21245 -3.70372 -0.0589625 0.858579 0.509279 211 110 59
0.377972 -1.20251 -3.67494 0.470751 0.605865 0.641343 200 87 46
0.384453 -1.20976 -3.67573 0.314776 0.616933 0.721325 189 59 32
0.379515 -1.20744 -3.66788 0.273009 0.68119 0.679298 196 85 45
0.391917 -1.20794 -3.68153 0.253818 0.774349 0.579621 193 43 31
0.410335 -1.20638 -3.67607 0.148687 0.662574 0.73409 229 69 62
0.407975 -1.2026 -3.67436 0.0440293 0.779306 0.625095 221 62 57
0.700791 -1.20474 -3.65493 0.0786288 0.790964 0.606789 191 97 46
0.724253 -1.20282 -3.65699 -0.178386 0.818004 0.546853 202 106 56
0.734066 -1.19851 -3.66097 -0.192354 0.859453 0.473646 205 106 54
0.756999 -1.20369 -3.65757 -0.311003 0.780315 0.542573 200 102 46
0.780501 -1.19662 -3.65553 0.00240162 0.780381 0.6253 193 96 46
0.790317 -1.19944 -3.65138 0.180282 0.788777 0.587648 190 96 45
0.798893 -1.19836 -3.65701 0.0716818 0.793594 0.60421 202 105 52
0.798732 -1.20324 -3.64875 -0.00527903 0.825534 0.564328 194 99 48
0.800967 -1.20178 -3.64741 -0.111825 0.756742 0.644078 194 101 51
0.798866 -1.19844 -3.65694 0.0730177 0.796418 0.600322 202 105 52
0.808196 -1.20082 -3.65374 -0.0886135 0.786984 0.610577 202 106 55
0.829273 -1.19901 -3.65282 -0.185812 0.83311 0.520962 205 108 57
0.866928 -1.19736 -3.64823 -0.131815 0.929066 0.345632 200 105 52
0.856683 -1.19912 -3.64182 -0.0620573 0.786545 0.614407 204 109 55
0.879882 -1.19612 -3.64114 -0.0782781 0.73317 0.675525 195 94 47
0.887457 -1.19742 -3.64647 -0.100223 0.95207 0.288995 205 105 55
0.899495 -1.19768 -3.63983 0.0862051 0.694325 0.71448 203 105 53
0.900255 -1.1971 -3.64047 -0.164062 0.773576 0.612098 206 108 58
0.90678 -1.19273 -3.63829 0.062965 0.645061 0.761532 203 107 56
0.907909 -1.19666 -3.62688 -0.0268099 0.357955 0.933354 213 113 66
0.916724 -1.19586 -3.6235 0.0251149 0.31985 0.947135 210 112 61
0.924224 -1.18926 -3.633 0.146024 0.793084 0.591351 211 114 66
0.927853 -1.19655 -3.62643 -0.310484 0.839592 0.445741 211 112 62
0.952324 -1.19904 -3.63925 0.100056 0.931274 0.35031 199 100 52
0.959221 -1.18816 -3.5981 0.158422 0.911703 0.379078 196 101 55
0.965601 -1.18464 -3.59499 0.221998 0.839675 0.495645 195 95 53
0.976744 -1.18384 -3.60373 0.181405 0.837315 0.515748 199 87 51
1.01414 -1.18294 -3.59622 -0.544078 0.656473 0.522515 199 55 43
1.02365 -1.18366 -3.58678 -0.301603 0.816319 0.492604 228 85 66
1.02382 -1.18371 -3.58901 -0.0252836 0.843993 0.535757 227 85 65
-2.12015 -1.2819 -3.92647 -0.0868795 -0.313877 0.94548 169 34 35
-2.1038 -1.2817 -3.93448 -0.218811 -0.141576 0.965442 169 46 39
-2.09905 -1.27737 -3.91576 -0.035599 -0.166986 0.985316 169 45 40
-1.9203 -1.27947 -3.90415 -0.152342 0.802338 0.577101 187 88 56
-1.89438 -1.28003 -3.90591 -0.161557 0.928548 0.334212 188 85 55
-1.83838 -1.27598 -3.89757 -0.170219 0.869614 0.463462 183 87 49
-1.8128 -1.27583 -3.9043 -0.380424 0.467101 0.798182 179 84 47
-1.79608 -1.27534 -3.89575 -0.270155 0.538921 0.79786 180 87 48
-1.80738 -1.28013 -3.90183 -0.38582 0.355792 0.851208 182 88 50
-1.78436 -1.27859 -3.88345 -0.265719 0.818621 0.509169 175 85 42
-1.75784 -1.26988 -3.87573 -0.347546 0.622659 0.701077 185 91 49
-1.73457 -1.26971 -3.86879 -0.284382 0.47473 0.832921 188 90 47
-1.53129 -1.27072 -3.88006 -0.222637 0.765828 0.603275 193 96 56
-1.51637 -1.27061 -3.86588 -0.199661 0.872095 0.446751 197 99 60
-1.49852 -1.26887 -3.86513 -0.172184 0.822539 0.542017 191 95 57
-1.4873 -1.26596 -3.86195 -0.2984 0.774504 0.557764 192 94 57
-1.46897 -1.26713 -3.84419 -0.0757706 0.918731 0.387547 194 95 62
-1.47068 -1.26431 -3.8502 -0.186271 0.897906 0.398833 190 91 55
-1.45682 -1.26374 -3.85742 0.0454815 0.963442 0.264028 187 88 52
-1.45608 -1.26096 -3.85354 0.0874395 0.908735 0.408111 187 88 52
-1.43963 -1.26639 -3.84578 0.0993303 0.916092 0.388469 188 89 53
-1.40376 -1.26529 -3.83752 -0.178595 0.671306 0.719342 198 99 63
-1.40047 -1.26518 -3.83715 -0.0998818 0.851287 0.515105 200 102 65
-0.98562 -1.23637 -3.72682 0.483564 0.830949 0.275117 195 91 49
-0.975738 -1.2384 -3.7354 0.376927 0.864112 0.333521 194 89 48
-0.967911 -1.24073 -3.74352 0.723598 0.445016 0.527606 193 85 47
-0.940862 -1.24069 -3.75337 -0.342876 0.794048 0.501921 195 72 48
-0.909865 -1.238 -3.73994 0.217008 0.536479 0.815536 217 71 61
-0.898523 -1.23412 -3.74227 -0.0755262 0.561204 0.824225 215 71 61
-0.8984 -1.23215 -3.7399 -0.288773 0.836634 0.46546 215 71 60
-0.8834 -1.23332 -3.75236 -0.0869591 0.857529 0.507033 226 80 68
-0.87142 -1.23561 -3.74508 -0.238358 0.752916 0.613436 217 68 55
-0.856471 -1.23569 -3.73205 -0.251849 0.681877 0.686743 193 58 37
-0.849797 -1.23352 -3.74361 -0.295797 0.848536 0.438738 208 63 48
-0.838973 -1.2385 -3.74608 0.0721342 0.458646 0.885686 193 65 40
-0.832235 -1.2415 -3.75413 0.399068 -0.429425 0.810147 188 69 37
-0.814219 -1.23733 -3.7517 0.115352 -0.427466 0.896642 189 73 40
-0.794189 -1.2378 -3.75866 -0.0988831 0.162525 0.981737 187 73 40
-0.783842 -1.24489 -3.75973 -0.324863 0.414569 0.850056 187 78 40
-0.781594 -1.23742 -3.76481 -0.266153 0.24955 0.931068 185 71 35
-0.662311 -1.2435 -3.76704 -0.44026 -0.141895 0.886587 192 84 44
-0.653792 -1.24607 -3.76748 -0.349751 0.309293 0.884314 198 67 45
-0.598156 -1.24761 -3.77751 -0.241288 -0.356677 0.902531 192 85 44
-0.584561 -1.24656 -3.77108 -0.329709 -0.0696438 0.94151 186 86 39
-0.561932 -1.23935 -3.76686 -0.552098 0.66658 0.500858 200 98 47
-0.532502 -1.23801 -3.74273 -0.573368 0.317022 0.755477 197 89 42
-0.520432 -1.23711 -3.73774 -0.479134 0.681851 0.552729 200 92 46
-0.299214 -1.23371 -3.74484 -0.39999 0.065585 0.91417 209 99 51
-0.289368 -1.23503 -3.74097 -0.456574 0.439402 0.773606 204 82 42
-0.279498 -1.23655 -3.73759 -0.431666 0.497671 0.752321 201 61 38
-0.257699 -1.23547 -3.73351 -0.0680403 0.713622 0.697219 224 74 59
-0.246482 -1.22908 -3.73464 -0.186046 0.546979 0.816211 212 86 45
-0.237399 -1.23219 -3.73079 -0.0648303 0.754704 0.652855 211 88 45
-0.228071 -1.23611 -3.72751 -0.465158 0.383604 0.797794 211 92 45
-0.22816 -1.22865 -3.73645 -0.506051 0.533915 0.677383 211 101 45
-0.151747 -1.22829 -3.7358 -0.422715 0.364521 0.829721 201 94 44
-0.1403 -1.23116 -3.73208 -0.138254 0.792811 0.593579 203 99 46
-0.130371 -1.23271 -3.72285 -0.058274 0.802209 0.594193 200 91 40
-0.121384 -1.22758 -3.72205 0.0556136 0.938508 0.34075 197 87 38
-0.110089 -1.23034 -3.71581 0.0873671 0.933396 0.348049 195 83 39
-0.099 -1.229 -3.72216 0.0778898 0.93294 0.351507 187 74 28
-0.0889513 -1.23186 -3.71298 -0.0287564 0.847092 0.530668 191 77 31
-0.0881114 -1.23133 -3.71439 0.00736191 0.8599 0.51041 190 76 31
-0.0876911 -1.22658 -3.72611 -0.409714 0.82391 0.391545 196 79 32
-0.0755572 -1.22646 -3.7204 -0.582713 0.601733 0.546226 195 81 33
-0.0658307 -1.22856 -3.71516 -0.0730887 0.642266 0.76299 198 85 36
-0.0416264 -1.22903 -3.70322 -0.0605551 0.553441 0.830684 203 104 49
-0.0500186 -1.22264 -3.71413 0.561181 0.712874 0.420578 195 88 36
-0.0263291 -1.22536 -3.70971 0.560683 0.711055 0.424306 199 95 41
0.060297 -1.22206 -3.7127 0.111898 0.9483 0.296996 198 94 42
0.0730152 -1.22528 -3.71294 -0.0513459 0.919552 0.3896 207 105 52
0.291735 -1.21839 -3.69589 -0.0466886 0.847704 0.528411 204 104 52
0.281935 -1.22152 -3.69069 -0.200165 0.823332 0.531091 198 98 48
0.300927 -1.22151 -3.69117 0.0446076 0.824977 0.563403 207 106 55
0.306797 -1.22383 -3.6939 -0.0424513 0.804428 0.592531 210 109 56
0.318264 -1.22233 -3.68857 -0.0521965 0.9411 0.334076 212 112 59
0.408933 -1.21547 -3.66842 0.335978 0.00313607 0.941864 212 54 48
0.408933 -1.21547 -3.66842 0.335978 0.00313607 0.941864 212 54 48
0.408933 -1.21547 -3.66842 0.335978 0.00313607 0.941864 212 54 48
0.505085 -1.2144 -3.65938 -0.569678 0.510678 0.643952 193 92 39
0.515731 -1.21518 -3.65113 -0.582895 0.489427 0.648609 199 94 42
0.618289 -1.20533 -3.64937 -0.369686 0.889784 0.267614 208 103 45
0.7127 -1.20754 -3.65032 -0.0311949 0.910132 0.413142 191 94 42
0.723064 -1.20931 -3.64501 -0.0749975 0.913796 0.399189 191 93 43
0.733856 -1.20578 -3.65191 -0.0938734 0.747154 0.657989 201 105 54
0.73425 -1.21267 -3.64302 -0.00906904 0.649811 0.760042 192 97 47
0.745844 -1.20919 -3.65145 -0.202964 0.880308 0.428794 204 109 55
0.756955 -1.21103 -3.64652 -0.30748 0.829533 0.466188 200 105 51
0.767471 -1.20572 -3.65225 -0.301833 0.770572 0.561351 198 100 44
0.765877 -1.20881 -3.63107 -0.785057 0.278611 0.553228 208 113 57
0.778815 -1.21174 -3.63834 -0.0942324 0.751623 0.652827 198 107 56
0.789224 -1.20744 -3.64325 -0.00070399 0.824944 0.565214 195 103 52
0.799252 -1.21059 -3.63812 -0.295486 0.765581 0.571466 187 94 45
0.809127 -1.20545 -3.64274 -0.136247 0.857513 0.496093 193 99 51
0.819705 -1.20735 -3.63666 -0.118424 0.87875 0.462358 192 96 47
0.817527 -1.20484 -3.64805 -0.160006 0.9165 0.366641 201 104 55
0.828286 -1.20642 -3.64193 -0.0775212 0.819495 0.567818 202 106 55
0.836702 -1.21067 -3.63609 0.0331507 0.777475 0.62804 202 106 55
0.846138 -1.20898 -3.64472 -0.17782 0.278165 0.94393 213 114 64
0.855556 -1.2075 -3.63194 0.0622223 0.740959 0.668662 203 111 58
0.867924 -1.20204 -3.63679 -0.12011 0.865633 0.48606 197 102 51
0.878678 -1.20411 -3.63069 0.0313475 0.886096 0.462442 195 98 48
0.890284 -1.20123 -3.63603 -0.079332 0.749983 0.656683 195 97 43
0.890179 -1.20874 -3.6277 -0.0459745 0.76058 0.647614 192 97 44
0.899999 -1.20411 -3.63131 -0.0680445 0.71406 0.69677 195 98 44
0.909257 -1.20718 -3.62636 -0.102895 0.750023 0.653359 192 96 48
0.917744 -1.2005 -3.62427 0.266661 0.158274 0.950706 208 110 57
0.928502 -1.20824 -3.62783 0.0966303 0.909279 0.404813 204 108 57
0.949773 -1.19036 -3.59633 0.285834 0.849066 0.444282 195 99 54
0.966989 -1.19164 -3.58816 0.068817 0.933416 0.352135 194 78 43
0.976243 -1.1897 -3.59242 0.224696 0.826471 0.516195 198 70 41
1.01345 -1.19339 -3.58894 -0.75138 0.483531 0.449027 187 54 37
1.03338 -1.18849 -3.58991 0.113286 0.920636 0.373625 223 96 58
-2.10563 -1.29053 -3.91664 -0.0696736 -0.108271 0.991677 170 48 37
-2.10615 -1.29078 -3.91676 -0.0328602 -0.169684 0.984951 167 45 35
-2.08394 -1.28549 -3.90202 -0.0656589 -0.335724 0.939669 164 54 35
-2.08023 -1.28616 -3.90483 -0.0489817 -0.111082 0.992603 168 64 45
-1.90522 -1.28262 -3.89556 0.129571 0.715557 0.686433 188 86 55
-1.89237 -1.2877 -3.88832 -0.350643 0.566815 0.7455 187 86 57
-1.7971 -1.28199 -3.88002 0.45297 0.612985 0.647355 187 94 54
-1.77255 -1.28684 -3.88359 -0.404578 0.175958 0.897416 176 82 41
-1.73077 -1.28261 -3.8622 -0.404721 0.656558 0.6365 181 84 43
-1.51211 -1.27409 -3.85952 -0.0540589 0.81499 0.576948 190 91 53
-1.49665 -1.27718 -3.85049 0.0605984 0.913669 0.401917 191 91 56
-1.45723 -1.2695 -3.84113 0.103649 0.872295 0.477869 187 89 56
-1.45706 -1.26903 -3.84465 0.0722579 0.903716 0.421992 185 87 54
-1.44202 -1.27647 -3.84512 -0.320341 0.757092 0.56938 182 85 48
-1.42569 -1.2708 -3.83881 0.126735 0.923622 0.361747 191 92 54
-1.40709 -1.27344 -3.8262 -0.269189 0.630376 0.728123 189 91 52
-1.39255 -1.26938 -3.8322 -0.0880308 0.775874 0.624716 200 103 65
-0.993379 -1.24262 -3.72272 0.620406 0.73191 0.281788 196 93 49
-0.970636 -1.24866 -3.73581 0.700967 0.372714 0.608053 221 90 61
-0.917579 -1.24941 -3.74259 0.192513 -0.341299 0.920029 214 67 57
-0.900422 -1.24587 -3.73893 -0.126802 0.572074 0.810341 205 61 48
-0.885977 -1.24579 -3.72658 -0.117636 0.344967 0.931214 186 63 39
-0.88127 -1.23797 -3.7317 -0.13978 0.603529 0.784993 205 64 49
-0.865961 -1.2381 -3.72258 0.0123399 0.674706 0.737983 183 61 36
-0.840539 -1.25224 -3.75474 -0.0336935 0.34514 0.937946 177 70 36
-0.827702 -1.25032 -3.76146 -0.313472 -0.25216 0.915506 176 72 35
-0.798096 -1.24595 -3.75592 -0.263818 0.253983 0.930534 185 78 43
-0.793779 -1.25164 -3.76114 -0.296218 0.329533 0.896473 189 83 45
-0.788237 -1.25661 -3.76285 -0.270687 0.262999 0.926045 195 93 51
-0.779072 -1.25052 -3.76158 -0.326646 0.415514 0.848911 192 88 45
-0.769327 -1.2507 -3.75206 -0.353403 0.689902 0.631776 198 97 48
-0.767165 -1.24859 -3.76578 0.536218 0.788763 0.300538 195 91 44
-0.590741 -1.25832 -3.77426 -0.247486 -0.344927 0.905415 198 97 51
-0.574677 -1.24965 -3.76546 -0.382275 0.635696 0.670639 185 85 36
-0.539201 -1.25369 -3.7535 -0.635177 0.277495 0.720796 195 87 45
-0.30606 -1.24735 -3.73055 -0.414957 0.800197 0.433008 201 101 48
-0.286792 -1.24474 -3.73382 -0.430386 0.493208 0.755985 199 85 43
-0.295664 -1.24168 -3.73432 -0.237651 0.762266 0.602058 204 97 48
-0.267575 -1.2418 -3.73037 -0.302091 0.581752 0.755186 210 60 47
-0.257441 -1.24404 -3.7234 -0.338074 0.617477 0.710231 220 67 57
-0.247865 -1.23867 -3.72891 -0.265963 0.709341 0.652763 216 71 51
-0.237794 -1.24013 -3.72299 -0.264275 0.645175 0.716874 215 74 50
-0.220272 -1.23887 -3.72789 -0.511993 0.479269 0.712856 211 93 46
-0.194977 -1.23859 -3.72255 -0.487514 0.819961 0.299991 207 97 42
-0.139019 -1.24104 -3.73231 -0.629408 0.652089 0.422641 202 91 37
-0.129587 -1.23965 -3.72639 -0.614176 0.63158 0.473175 201 89 37
-0.120971 -1.23287 -3.71281 0.0671577 0.937398 0.341724 199 88 41
-0.118927 -1.24136 -3.71582 -0.601278 0.701148 0.383219 202 89 44
-0.109645 -1.23569 -3.70702 0.0283894 0.943042 0.331461 199 88 44
-0.0989438 -1.2336 -3.71051 0.162755 0.914406 0.370637 194 82 37
-0.0977463 -1.23902 -3.70399 0.103184 0.929721 0.353514 197 87 43
-0.0983486 -1.23348 -3.71217 0.119132 0.925211 0.360268 193 83 37
-0.0884257 -1.23748 -3.70526 0.293634 0.868849 0.398598 196 84 38
-0.0796574 -1.23592 -3.70498 0.247427 0.885838 0.392519 193 79 32
-0.0689251 -1.23389 -3.71166 0.463254 0.0339402 0.885576 194 78 32
-0.0590014 -1.23872 -3.7076 -0.359512 0.607001 0.708732 194 79 32
-0.041348 -1.23771 -3.69845 -0.0781607 0.625009 0.776695 200 97 43
-0.0323874 -1.23294 -3.70038 -0.00759231 0.515777 0.856689 204 108 51
0.0187437 -1.23766 -3.71496 -0.33108 0.91596 0.226725 207 100 49
0.237395 -1.23291 -3.6792 -0.100246 0.745932 0.658434 202 102 50
0.237396 -1.22578 -3.68804 -0.0934785 0.813653 0.573786 211 116 65
0.318499 -1.22791 -3.67936 0.00814143 0.841121 0.540786 208 108 54
0.359416 -1.22621 -3.67049 -0.419884 0.877481 0.231785 210 106 55
0.370766 -1.2263 -3.66324 -0.387472 0.853765 0.347779 197 84 47
0.37265 -1.22515 -3.66812 -0.369885 0.897981 0.23836 195 80 46
0.514756 -1.22349 -3.64287 -0.104779 0.834499 0.540956 208 105 53
0.594362 -1.21957 -3.64251 -0.184594 0.692212 0.697687 200 103 54
0.603333 -1.21416 -3.64328 -0.581821 0.72958 0.359442 209 111 56
0.687453 -1.2133 -3.63775 -0.0422516 -0.041768 0.998234 200 99 48
0.698673 -1.21242 -3.63793 0.203581 -0.0407605 0.978209 194 90 39
0.702083 -1.21911 -3.63109 0.271479 0.266434 0.924831 197 94 41
0.708396 -1.21217 -3.63825 -0.137683 0.288032 0.947671 192 89 38
0.712001 -1.21912 -3.63117 0.00277765 0.352244 0.935904 195 90 43
0.725431 -1.21724 -3.64107 -0.133969 0.634311 0.761381 186 86 37
0.734028 -1.21991 -3.63466 -0.0869822 0.747534 0.658504 184 87 38
0.743086 -1.21608 -3.63838 0.0765954 0.67612 0.732799 196 101 52
0.745749 -1.21465 -3.63901 0.0226518 0.690574 0.722907 199 104 54
0.754165 -1.21736 -3.63447 -0.0374972 0.806442 0.590124 195 102 52
0.771391 -1.21293 -3.64095 -0.0729206 0.840163 0.53741 211 116 60
0.789412 -1.21452 -3.63487 -0.174152 0.826809 0.534844 198 109 59
0.808953 -1.21194 -3.63234 -0.264929 0.745039 0.612151 186 95 44
0.81092 -1.21746 -3.62361 -0.0636103 0.849242 0.524158 201 107 59
0.818354 -1.21523 -3.62646 -0.0621718 0.723413 0.687611 189 95 49
0.828742 -1.21123 -3.63117 0.0212105 0.775751 0.630682 191 95 46
0.838199 -1.21508 -3.62705 0.0552269 0.806322 0.588892 196 99 48
0.828744 -1.21877 -3.62407 -0.0576714 0.781631 0.621069 185 89 41
0.847263 -1.21048 -3.62777 -0.394198 0.776995 0.490802 204 108 59
0.890021 -1.21565 -3.61829 -0.0602826 0.80507 0.590109 201 111 59
0.899769 -1.21179 -3.62255 0.00482105 0.847111 0.531395 190 95 45
0.930711 -1.21094 -3.61771 -0.146695 0.794195 0.589691 195 100 51
0.941704 -1.21125 -3.61184 -0.462126 0.79375 0.395476 198 102 57
0.975667 -1.19932 -3.58696 0.175767 0.905357 0.386569 192 53 29
-2.08163 -1.29697 -3.89915 -0.0792426 -0.0707715 0.99434 167 65 40
-2.06601 -1.29712 -3.89825 -0.0404478 -0.158206 0.986577 176 78 47
-1.90655 -1.29358 -3.89041 0.0154761 0.823966 0.566428 175 73 44
-1.50807 -1.28439 -3.84295 -0.316717 0.844426 0.432013 186 86 53
-1.49439 -1.28654 -3.83299 -0.412154 0.666709 0.62099 186 86 54
-1.48166 -1.2797 -3.8411 0.116562 0.746988 0.65454 190 92 58
-1.45578 -1.28365 -3.83792 -0.123474 0.735932 0.665701 196 99 65
-1.42784 -1.27826 -3.83669 -0.0627998 0.839651 0.539484 187 91 52
-1.41704 -1.27991 -3.82072 -0.324551 0.556601 0.764763 188 92 52
-1.3952 -1.27702 -3.81935 -0.261954 0.740503 0.618898 192 95 55
-1.01857 -1.25514 -3.71969 0.186742 0.678045 0.710902 204 103 58
-1.00971 -1.25154 -3.72658 -0.0515345 0.693149 0.71895 200 98 52
-0.996107 -1.25362 -3.71738 -0.0423304 0.744448 0.666337 214 90 57
-0.989134 -1.25296 -3.72974 -0.0887269 0.770365 0.631399 212 89 54
-0.973059 -1.25195 -3.71205 0.48827 0.249347 0.836312 240 90 72
-0.96162 -1.25377 -3.73231 -0.316458 0.530834 0.786174 242 93 76
-0.943226 -1.25473 -3.73446 -0.360248 0.774973 0.519266 239 90 74
-0.920582 -1.25603 -3.73645 0.362514 -0.232959 0.902393 198 64 45
-0.906251 -1.25795 -3.72787 -0.18082 0.136299 0.974026 178 66 38
-0.89572 -1.25087 -3.72313 -0.0401296 0.590876 0.805764 184 66 39
-0.883642 -1.25164 -3.72448 0.51485 0.593567 0.618553 181 69 39
-0.891185 -1.25266 -3.72148 0.584639 0.656767 0.476293 182 70 40
-0.868915 -1.25077 -3.72477 0.726724 0.603601 0.32793 169 67 34
-0.861255 -1.24994 -3.73702 0.792805 0.494586 0.356154 170 63 29
-0.839682 -1.2647 -3.75907 0.0281629 0.307929 0.950992 181 81 41
-0.817098 -1.26129 -3.75959 -0.17695 -0.370799 0.9117 180 82 44
-0.788424 -1.26111 -3.75532 -0.313347 0.382165 0.869346 198 98 50
-0.778897 -1.25723 -3.73837 -0.315759 0.389385 0.86526 200 99 49
-0.778897 -1.25723 -3.73837 -0.315759 0.389385 0.86526 199 98 49
-0.77507 -1.25967 -3.74954 -0.301179 0.338688 0.891393 202 101 49
-0.761441 -1.25429 -3.75243 -0.356794 0.572679 0.738062 199 99 47
-0.766156 -1.2593 -3.76745 -0.340341 0.456552 0.822027 199 99 47
-0.753481 -1.25136 -3.73643 -0.326851 0.414066 0.84954 201 101 49
-0.748002 -1.25604 -3.74299 -0.304517 0.338528 0.890319 203 103 53
-0.576449 -1.26176 -3.76024 -0.617076 0.522505 0.588393 198 98 48
-0.527052 -1.25318 -3.74991 -0.56332 0.678505 0.471489 198 90 48
-0.306224 -1.25251 -3.72256 -0.175334 0.903676 0.390675 196 94 42
-0.277837 -1.24918 -3.72998 -0.350723 0.514622 0.782405 199 73 41
-0.285959 -1.25354 -3.72474 -0.0534859 0.596058 0.801158 202 90 46
-0.267634 -1.25135 -3.72267 -0.38606 0.596725 0.703475 198 63 41
-0.246875 -1.24819 -3.71424 -0.495513 0.772119 0.397868 231 75 67
-0.237254 -1.25211 -3.7115 -0.172567 0.869172 0.463423 232 77 70
-0.224138 -1.24519 -3.71928 -0.512292 0.450923 0.730908 216 79 48
-0.205691 -1.2462 -3.71541 -0.49608 0.688158 0.529474 213 88 47
-0.107735 -1.24379 -3.70846 -0.530528 0.756816 0.381798 202 90 44
-0.1132 -1.25034 -3.70614 -0.548082 0.769935 0.326813 198 85 40
-0.0961924 -1.24542 -3.70102 0.3639 0.833534 0.41569 198 86 41
-0.10434 -1.24702 -3.70272 -0.557579 0.754067 0.347115 200 88 42
-0.0878665 -1.24344 -3.69849 0.322066 0.857749 0.400675 200 87 41
-0.0791042 -1.24185 -3.69813 0.307351 0.862961 0.401042 198 88 40
-0.0715697 -1.24951 -3.69965 0.0656378 0.693557 0.717405 203 96 47
-0.0693527 -1.2421 -3.7045 0.244805 0.739075 0.627566 195 88 39
-0.0592233 -1.24654 -3.69972 0.198865 0.817377 0.540692 199 96 45
-0.0644622 -1.24213 -3.68906 -0.523877 0.594495 0.610023 198 87 38
-0.0499846 -1.24306 -3.69891 -0.0688752 0.644615 0.761399 198 93 41
-0.0413173 -1.24698 -3.6935 0.0309795 0.335463 0.941544 200 93 44
-0.0322637 -1.24135 -3.69458 -0.296839 0.660098 0.690042 201 95 44
-0.0209139 -1.24507 -3.69294 -0.484034 0.629483 0.607834 201 94 42
0.00734472 -1.2411 -3.70012 -0.58134 0.74536 0.326318 196 84 35
0.0177561 -1.24421 -3.6926 -0.138561 0.907636 0.396229 197 89 39
0.0199281 -1.24058 -3.69414 -0.387316 0.872759 0.297118 198 91 41
0.0293532 -1.24338 -3.68705 0.132095 0.776914 0.615594 200 96 45
0.0282014 -1.24535 -3.68284 0.0294782 0.874916 0.483377 198 95 44
0.0415893 -1.24044 -3.69549 -0.675655 0.608621 0.416018 210 108 56
0.0414909 -1.24046 -3.69423 -0.686423 0.585475 0.431326 210 108 56
0.133269 -1.24227 -3.67795 -0.504449 0.743743 0.438609 210 112 64
0.141838 -1.23457 -3.67284 -0.633985 0.554722 0.538839 214 116 66
0.228405 -1.23562 -3.67567 -0.0201047 0.783438 0.621144 206 105 54
0.241045 -1.24023 -3.66779 -0.368103 0.795411 0.481478 202 100 50
0.237389 -1.2387 -3.66712 -0.0485153 0.873826 0.483813 202 101 48
0.250703 -1.23405 -3.67183 -0.390167 0.706357 0.590618 201 102 47
0.291202 -1.23708 -3.66047 -0.563819 0.652483 0.506335 213 113 60
0.325004 -1.23703 -3.66547 0.0772234 0.721033 0.688584 204 103 53
0.322298 -1.23948 -3.66577 0.0899759 0.874296 0.476982 203 102 52
0.343236 -1.23621 -3.6628 -0.326341 0.594653 0.734771 207 107 55
0.349716 -1.23663 -3.65148 -0.358453 0.644575 0.675303 204 100 53
0.367083 -1.23748 -3.65385 -0.176452 0.840601 0.512108 187 58 32
0.479058 -1.22607 -3.64719 0.177346 0.869654 0.460706 212 104 49
0.478692 -1.23254 -3.63901 0.272274 0.747122 0.606363 211 105 53
0.525974 -1.22578 -3.63629 -0.00442278 0.861791 0.507244 205 105 52
0.537478 -1.22462 -3.63158 -0.351364 0.463371 0.81353 203 103 54
0.537459 -1.22764 -3.62906 -0.602273 0.409283 0.685387 208 109 60
0.548002 -1.22486 -3.62733 -0.20959 0.627148 0.750172 201 101 51
0.584985 -1.22632 -3.64321 -0.23708 0.854399 0.462379 198 101 51
0.604066 -1.22531 -3.64367 -0.080777 0.635272 0.768052 201 101 53
0.612774 -1.22915 -3.63913 -0.114586 0.730036 0.673734 191 94 47
0.604486 -1.23203 -3.63559 -0.184708 0.670224 0.718806 185 87 42
0.623145 -1.23134 -3.63428 -0.0453609 0.78052 0.623483 191 94 49
0.621991 -1.23162 -3.63369 -0.0770722 0.769986 0.633389 190 93 49
0.632171 -1.22858 -3.6386 -0.0454319 0.834308 0.549424 197 99 50
0.654061 -1.22917 -3.62704 -0.0788215 0.804832 0.588246 205 108 52
0.673116 -1.22914 -3.62732 -0.0590287 0.718157 0.693373 204 104 49
0.683104 -1.22249 -3.62634 0.00431307 0.86746 0.497489 195 99 50
0.703603 -1.22563 -3.63224 0.19477 0.129955 0.972202 197 94 43
0.713388 -1.22901 -3.62869 -0.254666 0.583119 0.771439 198 92 44
0.72396 -1.2224 -3.62681 -0.0565904 0.906356 0.418708 193 91 47
0.735196 -1.22355 -3.61789 -0.0664812 0.956288 0.284768 191 95 50
0.732947 -1.22394 -3.6186 -0.0537443 0.956793 0.285761 192 95 50
0.743561 -1.22306 -3.63029 -0.0530319 0.710245 0.701954 187 92 45
0.74703 -1.22547 -3.62082 -0.164439 0.806521 0.567877 183 89 45
0.757112 -1.21986 -3.62402 -0.206567 0.783709 0.585773 190 97 49
0.768122 -1.22222 -3.632 0.0371967 0.890508 0.453445 206 110 59
0.782797 -1.22493 -3.61197 -0.153414 0.856381 0.493028 201 106 53
0.816526 -1.22323 -3.61746 -0.063173 0.804583 0.59047 195 101 52
0.82735 -1.2248 -3.61056 -0.0273999 0.936693 0.349078 192 99 49
0.838164 -1.22166 -3.61771 -0.12126 0.840716 0.527724 190 94 45
0.848154 -1.2193 -3.6239 0.156876 0.835682 0.526332 200 106 55
0.848209 -1.22301 -3.61006 -0.224322 0.712537 0.664809 188 96 45
0.939657 -1.22185 -3.5987 -0.259047 0.764364 0.590459 185 83 38
-2.08093 -1.30672 -3.89086 -0.0871258 -0.0460148 0.995134 169 69 42
-2.07445 -1.31115 -3.9 -0.140157 -0.24728 0.958754 176 77 43
-1.78291 -1.30163 -3.88187 -0.432961 0.331432 0.838271 187 95 48
-1.77816 -1.30111 -3.87611 -0.431365 0.527737 0.731722 187 95 48
-1.75693 -1.29895 -3.8584 -0.273005 0.77096 0.575404 193 99 55
-1.74115 -1.30061 -3.84781 -0.285126 0.7556 0.589722 193 98 52
-1.68482 -1.30009 -3.8592 -0.334365 0.802444 0.49425 189 91 46
-1.66781 -1.30025 -3.84665 -0.371347 0.743695 0.555895 186 90 46
-1.61252 -1.29291 -3.82609 0.0955957 0.806622 0.583286 197 103 53
-1.57759 -1.2984 -3.84008 -0.24462 0.858312 0.451067 175 78 44
-1.50469 -1.29433 -3.8246 0.351011 0.911207 0.215623 183 86 56
-1.48186 -1.28962 -3.8265 -0.27773 0.803375 0.526739 182 87 48
-1.46691 -1.28865 -3.83186 0.291444 0.888947 0.353317 190 93 55
-1.45627 -1.29281 -3.8271 -0.0387107 0.765146 0.642693 189 93 54
-1.44245 -1.28772 -3.83362 -0.0810473 0.849945 0.520601 194 97 61
-1.42839 -1.29065 -3.82502 0.0299316 0.819032 0.572966 192 95 57
-1.33899 -1.28497 -3.81122 0.0425349 0.937535 0.34528 198 96 63
-1.06563 -1.25631 -3.69068 0.0858402 0.635822 0.767048 201 111 64
-1.01238 -1.26276 -3.72243 -0.059617 0.941785 0.330889 213 94 59
-1.004 -1.25506 -3.68286 0.423371 0.869637 0.253947 223 91 69
-0.9759 -1.2608 -3.70021 0.881938 0.261994 0.391846 226 81 61
-0.960516 -1.26351 -3.72299 0.00712098 0.831134 0.556027 213 73 55
-0.957571 -1.26274 -3.71416 0.319855 0.493156 0.809005 209 74 52
-0.961432 -1.25813 -3.70526 0.00712556 0.966156 0.257861 215 74 55
-0.964569 -1.26211 -3.70596 0.216076 0.88673 0.408681 206 70 48
-0.963822 -1.25901 -3.70469 0.684849 0.4693 0.557441 214 72 53
-0.952698 -1.25901 -3.72901 -0.114344 0.645052 0.755535 228 81 65
-0.926697 -1.26034 -3.73478 -0.188264 -0.344116 0.919859 192 69 44
-0.882339 -1.25719 -3.70952 0.602689 0.647532 0.466335 175 75 39
-0.875547 -1.25794 -3.71239 0.744649 0.578447 0.333012 173 74 39
-0.867934 -1.25939 -3.72114 0.666381 0.49809 0.554835 182 82 44
-0.827258 -1.27516 -3.75924 -0.218626 0.651533 0.726435 188 89 43
-0.8063 -1.27139 -3.74997 -0.46021 -0.0611947 0.885699 190 93 49
-0.785247 -1.27083 -3.75552 -0.408364 0.360296 0.838705 201 102 49
-0.785247 -1.27083 -3.75552 -0.408364 0.360296 0.838705 201 102 49
-0.531783 -1.26213 -3.73676 -0.127684 0.915371 0.381829 186 85 45
-0.33698 -1.2631 -3.71146 -0.47574 0.727163 0.49488 202 97 53
-0.322596 -1.25451 -3.71407 -0.572066 0.540585 0.616854 195 90 48
-0.304736 -1.25974 -3.70858 -0.0252466 0.856325 0.51582 201 99 45
-0.293353 -1.25583 -3.71497 -0.00684282 0.775724 0.631035 201 99 43
-0.270719 -1.26273 -3.71776 -0.647622 0.571042 0.504477 190 82 46
-0.275883 -1.25617 -3.71759 -0.0230874 0.859379 0.510818 193 81 45
-0.273839 -1.25357 -3.70532 0.137046 0.900923 0.411771 196 91 47
-0.25739 -1.26098 -3.70203 -0.0910539 0.904887 0.415798 189 71 40
-0.257174 -1.25408 -3.71361 -0.535907 0.566316 0.626171 202 61 45
-0.247312 -1.25723 -3.70899 -0.116379 0.743974 0.657996 217 72 59
-0.236905 -1.25971 -3.70361 0.0170896 0.695688 0.718141 218 68 58
-0.227291 -1.25522 -3.70581 -0.455873 0.780169 0.428387 235 77 69
-0.206236 -1.25777 -3.70992 -0.49412 0.629331 0.599824 219 70 47
-0.180052 -1.257 -3.69278 -0.423408 0.776668 0.466383 206 79 45
-0.132501 -1.25335 -3.71002 -0.649538 0.044164 0.759045 198 85 40
-0.121944 -1.25209 -3.70254 -0.662017 0.388305 0.641056 194 81 36
-0.113095 -1.25477 -3.68036 -0.455476 0.481947 0.748511 197 83 43
-0.107562 -1.2537 -3.68388 0.14082 0.827522 0.543486 193 78 35
-0.0870771 -1.2499 -3.6934 0.318426 0.853946 0.411559 201 86 42
-0.0956192 -1.25168 -3.69477 -0.038585 0.877038 0.478868 200 84 39
-0.0725418 -1.25544 -3.68552 -0.143177 0.773277 0.617692 202 95 48
-0.0627066 -1.25302 -3.69348 0.205498 0.80109 0.562162 203 100 49
-0.0533174 -1.25817 -3.69198 0.318205 0.773961 0.547476 205 105 52
-0.0491954 -1.25115 -3.69403 0.236837 0.606045 0.759353 201 99 48
-0.0450505 -1.25675 -3.69523 0.385148 0.68632 0.616949 204 104 52
