ply
format ascii 1.0
element vertex 709
property float x
property float y
property float z
property float nx
property float ny
property float nz
property uchar diffuse_red
property uchar diffuse_green
property uchar diffuse_blue
end_header
1.01469 -0.662519 -13.9321 -0.0402364 0.809094 0.5863 130 105 78
1.02975 -0.664773 -13.9337 0.211244 0.152857 0.965407 136 113 95
1.02752 -0.661063 -13.9333 0.238993 0.0714094 0.968392 132 124 104
1.02746 -0.661276 -13.9319 0.427459 0.0668866 0.901557 130 121 102
1.0357 -0.665617 -13.937 0.370763 0.482708 0.793428 144 118 96
1.03101 -0.665796 -13.9297 0.376029 0.45391 0.807817 138 113 95
1.0516 -0.666254 -13.9463 0.279567 0.559595 0.780189 135 127 109
1.05764 -0.667994 -13.9485 -0.0813601 0.748808 0.657775 131 119 98
1.06303 -0.667341 -13.9518 -0.570732 0.360439 0.7378 146 130 110
1.06833 -0.667266 -13.9542 -0.410695 0.597338 0.688852 165 158 137
1.08014 -0.667306 -13.9026 -0.703985 0.175925 0.688081 155 156 128
1.08747 -0.672866 -13.9528 -0.019984 -0.857401 0.51426 139 128 109
1.10031 -0.673927 -13.9739 0.0846131 -0.621527 0.77881 121 106 86
1.09857 -0.66922 -13.9734 0.777067 -0.0234306 0.628981 133 119 95
1.10514 -0.671467 -13.9882 -0.0352519 -0.485043 0.873779 140 143 116
1.12323 -0.676294 -14.0548 -0.0749048 0.307317 0.948654 95 75 65
1.12842 -0.67614 -14.0601 -0.0687989 0.35227 0.933366 50 43 43
1.12577 -0.671689 -14.0633 0.109849 0.73143 0.673011 58 55 52
1.13387 -0.676161 -14.0589 -0.142352 0.636843 0.757738 34 45 43
1.14281 -0.67424 -14.0241 -0.237089 0.489911 0.838914 112 110 98
1.19415 -0.680644 -14.051 0.75331 0.104838 0.649256 194 209 193
1.19875 -0.683749 -14.0514 0.746045 0.150776 0.648601 190 206 186
1.19877 -0.683749 -14.0514 0.750537 0.131496 0.647613 190 206 186
1.20513 -0.683694 -14.0644 0.256774 0.0630478 0.964413 154 155 135
1.22685 -0.683842 -14.0711 0.589177 0.201505 0.782474 171 179 156
1.22958 -0.689442 -14.0736 0.565823 -0.0763323 0.820986 176 191 174
0.596135 -0.616536 -14.2239 -0.0839565 -0.860657 0.502217 231 236 239
0.60208 -0.617517 -14.2292 0.105488 -0.733918 0.670996 220 225 228
0.608384 -0.617373 -14.2349 -0.128952 -0.605969 0.784967 109 105 104
0.623527 -0.618539 -14.2277 -0.673376 -0.117367 0.729925 148 128 116
0.635729 -0.619898 -14.2252 0.173058 -0.341011 0.923993 165 124 118
0.643488 -0.620687 -14.2108 -0.541193 -0.109439 0.833746 168 131 126
0.685149 -0.630244 -14.1197 -0.591888 -0.0364159 0.805197 134 108 100
0.690549 -0.628739 -14.1218 0.0455375 0.0222835 0.998714 135 97 87
0.852492 -0.646131 -13.8471 0.724206 -0.231022 0.649734 58 45 34
0.879799 -0.651969 -13.8625 0.750342 -0.407149 0.520785 64 45 35
0.883151 -0.649686 -13.8716 0.665597 -0.479575 0.571829 99 73 57
0.884231 -0.654146 -13.8742 0.145058 -0.835605 0.529832 67 49 38
0.905225 -0.656008 -13.9051 0.540788 -0.102793 0.834854 59 45 36
0.905249 -0.651634 -13.9092 0.576348 0.0715618 0.814065 76 57 46
0.902021 -0.653205 -13.9061 0.493947 -0.125201 0.860431 78 58 46
0.910799 -0.654175 -13.9178 0.153676 0.788028 0.59615 75 60 46
0.908145 -0.654371 -13.9098 0.583718 -0.0396855 0.810986 81 62 51
0.911276 -0.652325 -13.9129 0.533091 0.195694 0.823115 98 72 59
0.936499 -0.658808 -13.9054 0.289176 -0.503028 0.814457 85 66 52
0.93936 -0.656763 -13.906 0.554857 -0.26238 0.789488 122 91 76
0.944485 -0.661155 -13.9161 0.584294 -0.443854 0.679407 89 71 58
1.01194 -0.667102 -13.9103 0.251087 -0.42032 0.871944 75 64 50
1.00819 -0.665426 -13.9084 0.195398 0.00554712 0.980708 47 40 33
1.02593 -0.665796 -13.9273 0.181572 0.423746 0.887396 114 97 80
1.05144 -0.670977 -13.9429 0.168071 0.526017 0.833701 144 124 105
1.05946 -0.673084 -13.9471 -0.303968 0.469665 0.828866 136 114 95
1.06486 -0.67247 -13.9487 -0.282795 0.516319 0.808358 146 117 93
1.07185 -0.674236 -13.9424 -0.00385011 -0.85648 0.516165 163 147 128
1.07723 -0.675897 -13.9391 -0.0125075 -0.857044 0.515091 167 148 131
1.08227 -0.674502 -13.9356 -0.0164482 -0.857439 0.514322 132 115 96
1.08274 -0.675336 -13.9148 -0.824567 -0.0673713 0.561738 140 101 76
1.09775 -0.677556 -13.969 0.0543509 -0.466511 0.882844 126 97 74
1.09775 -0.677555 -13.969 0.0540702 -0.466145 0.883055 126 97 74
1.11714 -0.680461 -14.0397 -0.691874 0.493076 0.527434 133 95 75
1.12604 -0.680849 -14.0466 -0.244565 0.571602 0.783236 97 74 66
1.22657 -0.694262 -14.0696 0.708564 0.284805 0.645618 185 202 191
1.22414 -0.689438 -14.0733 0.476361 -0.063043 0.876987 166 179 157
0.59451 -0.624128 -14.2322 -0.272898 -0.782481 0.559688 240 246 250
0.597254 -0.624053 -14.2359 -0.377136 -0.575867 0.725359 236 246 249
0.606205 -0.623787 -14.2385 -0.402707 -0.43565 0.805007 121 115 114
0.6879 -0.633598 -14.1197 -0.682375 -0.113565 0.722127 150 114 106
0.842583 -0.654001 -13.8677 0.405946 -0.0132999 0.9138 59 28 18
0.839939 -0.653134 -13.8701 0.638216 0.140195 0.756985 62 31 22
0.848415 -0.653497 -13.8701 0.739719 0.0544397 0.670711 50 28 20
0.879764 -0.655314 -13.8701 0.710737 -0.473367 0.520363 66 47 38
0.94175 -0.661813 -13.907 0.576651 -0.362219 0.732306 85 70 57
0.944433 -0.661377 -13.9158 0.464625 -0.644232 0.607527 83 67 55
0.961723 -0.667226 -13.9198 -0.276309 -0.780763 0.560413 49 42 32
0.966305 -0.668048 -13.9167 -0.0482284 -0.826198 0.561311 82 64 53
0.970708 -0.669542 -13.9206 -0.21793 -0.8143 0.53798 51 41 34
0.975439 -0.670342 -13.9326 -0.113435 -0.856505 0.503519 46 35 30
0.978835 -0.669567 -13.9453 -0.10617 -0.857917 0.502698 52 41 34
0.97721 -0.670521 -13.9333 -0.243068 -0.802568 0.544796 51 41 35
0.979465 -0.669743 -13.9407 -0.161145 -0.851215 0.499465 55 46 38
0.986075 -0.671511 -13.9378 -0.469248 -0.693921 0.54615 49 40 33
0.993056 -0.671881 -13.9344 -0.742226 0.273483 0.611806 51 40 35
0.99693 -0.671217 -13.9206 0.292283 -0.702932 0.648426 47 40 38
0.99964 -0.671437 -13.9205 0.0501987 -0.600224 0.798255 44 37 30
1.0025 -0.671224 -13.9191 -0.442474 -0.662519 0.604389 43 36 30
1.01023 -0.673069 -13.9217 -0.188366 -0.832565 0.520916 88 72 53
1.065 -0.678552 -13.9225 -0.563403 0.601495 0.566375 65 50 36
1.07036 -0.678483 -13.9192 -0.563439 0.475305 0.675738 117 102 90
1.09366 -0.683364 -13.9672 -0.424902 -0.691818 0.58382 76 54 40
1.10045 -0.681939 -13.971 0.186101 -0.554174 0.811331 114 86 67
1.1174 -0.687487 -13.9942 -0.705593 0.455048 0.543203 81 60 46
0.588285 -0.62783 -14.2319 -0.201064 -0.818433 0.538275 243 250 253
0.594596 -0.629979 -14.2362 0.183492 -0.62318 0.760248 242 249 253
0.600512 -0.629913 -14.2412 -0.292397 -0.244004 0.924644 141 144 145
0.606253 -0.629678 -14.2439 -0.00911774 -0.70343 0.710706 149 132 126
0.615089 -0.632794 -14.2308 -0.715091 0.0266978 0.698521 145 130 115
0.683596 -0.638856 -14.1198 -0.680609 -0.138408 0.719454 138 111 109
0.685341 -0.637966 -14.1235 0.123415 0.121809 0.984851 147 113 109
0.689323 -0.642255 -14.1199 0.298142 0.107797 0.948415 155 110 101
0.841263 -0.655105 -13.8727 0.326752 -0.0649067 0.942879 92 38 20
0.844772 -0.657414 -13.8755 0.681843 0.105474 0.723855 126 56 27
0.8465 -0.655163 -13.8734 0.610286 0.237002 0.755898 69 33 19
0.851984 -0.659259 -13.88 0.553681 0.246161 0.795513 129 55 31
0.850102 -0.656438 -13.8756 0.618206 0.215912 0.75578 82 33 19
0.848439 -0.658412 -13.8781 0.606557 0.244804 0.756412 135 55 27
0.853648 -0.657038 -13.8784 0.452728 0.42619 0.783198 70 33 20
0.856049 -0.659348 -13.882 0.414765 0.323356 0.850536 82 37 22
0.858789 -0.66082 -13.8769 -0.0318227 0.14917 0.988299 87 39 23
0.863009 -0.660504 -13.8818 0.580196 0.254719 0.773622 89 39 22
0.861935 -0.659789 -13.8812 0.559337 0.287169 0.777609 80 36 21
0.8792 -0.66118 -13.8689 0.591187 -0.615062 0.521725 73 41 26
0.882671 -0.659426 -13.8752 0.680025 -0.515503 0.521366 50 24 16
0.894771 -0.663728 -13.9043 0.431054 -0.433856 0.791177 53 24 13
0.891327 -0.663679 -13.9038 0.432013 -0.086966 0.897664 64 30 16
0.898589 -0.665051 -13.9077 0.570468 -0.0149122 0.821184 70 30 15
0.90596 -0.662299 -13.906 0.243962 -0.713137 0.657205 38 17 15
0.902081 -0.666248 -13.9113 0.576239 0.181543 0.796863 88 37 17
0.905593 -0.664882 -13.9121 0.519968 -0.0714555 0.851192 46 26 16
0.90932 -0.667284 -13.9144 0.543117 -0.173606 0.821514 80 33 18
0.911116 -0.663271 -13.9094 0.209817 -0.696791 0.6859 38 21 17
0.908937 -0.663145 -13.9087 0.21305 -0.669424 0.711675 37 20 15
0.90892 -0.665788 -13.9113 0.306806 -0.5631 0.767326 50 25 16
0.915906 -0.668569 -13.9157 0.0342865 -0.616492 0.786614 79 32 18
0.912834 -0.667285 -13.9164 0.491503 -0.331373 0.805368 67 30 18
0.912075 -0.664001 -13.9104 0.207343 -0.684855 0.698557 38 22 18
0.962506 -0.669737 -13.911 -0.297568 -0.761084 0.576372 40 32 25
0.966001 -0.671451 -13.9095 -0.185071 -0.782754 0.594176 55 42 33
0.969072 -0.670717 -13.9116 -0.237405 -0.42896 0.871569 70 54 43
0.97089 -0.673127 -13.912 -0.647509 -0.487571 0.585667 38 28 24
0.973002 -0.673381 -13.9172 -0.637493 -0.5042 0.582568 37 26 22
0.97142 -0.673266 -13.9136 -0.767183 -0.341304 0.543086 38 30 26
0.975429 -0.671051 -13.9248 -0.702475 -0.393513 0.593023 41 30 26
0.98606 -0.674061 -13.9415 -0.470314 -0.692582 0.546932 63 48 37
0.982909 -0.671465 -13.9409 -0.469907 -0.692911 0.546866 52 44 37
0.983125 -0.674067 -13.94 -0.402901 -0.757507 0.513666 56 44 34
0.989264 -0.674113 -13.9378 -0.738145 -0.321573 0.593071 67 54 40
0.990736 -0.677591 -13.9388 -0.703881 -0.40152 0.585947 85 76 60
0.991657 -0.675041 -13.9385 -0.745646 -0.302844 0.593547 87 73 54
1.00406 -0.67834 -13.9203 -0.588697 -0.428878 0.6852 91 77 60
1.06956 -0.687161 -14.0126 0.363522 -0.51504 0.776264 110 86 63
1.07441 -0.683599 -14.0162 0.479502 -0.534244 0.696176 93 78 56
1.11528 -0.691543 -13.9867 -0.521514 0.421566 0.741825 85 78 68
1.11839 -0.690825 -13.9884 -0.66313 0.41971 0.61976 97 89 79
0.583867 -0.636715 -14.2321 0.0875106 -0.86841 0.488063 242 250 253
0.591226 -0.635845 -14.241 0.164005 -0.423736 0.890814 238 246 249
0.588467 -0.633681 -14.2351 0.0574815 -0.701063 0.710779 243 249 253
0.597736 -0.63584 -14.2425 0.108405 -0.416428 0.902683 148 151 153
0.605844 -0.636737 -14.2424 -0.471448 -0.43858 0.765104 154 134 126
0.612972 -0.636693 -14.2393 -0.422749 -0.128737 0.897056 139 123 106
0.621116 -0.638048 -14.2232 -0.627054 -0.186468 0.756329 130 87 75
0.680259 -0.646346 -14.1175 -0.573536 0.401715 0.71392 179 158 154
0.687254 -0.646976 -14.1134 -0.685372 -0.0839747 0.723335 146 108 101
0.832069 -0.660252 -13.8728 -0.819228 0.0686304 0.569346 146 103 95
0.834896 -0.660677 -13.8709 0.582442 0.318746 0.747772 167 100 70
0.841281 -0.661239 -13.8744 0.519655 0.38463 0.762901 187 101 56
0.840527 -0.664441 -13.8733 0.52289 0.355575 0.774695 196 118 73
0.837941 -0.660615 -13.8732 0.549061 0.356015 0.756165 185 102 58
0.843499 -0.663892 -13.874 0.632761 0.224926 0.74096 191 107 62
0.851766 -0.664679 -13.881 0.371316 0.641058 0.671691 172 91 48
0.851529 -0.665632 -13.8766 0.270335 0.680525 0.681032 177 95 50
0.848052 -0.665427 -13.88 0.388094 0.507262 0.76946 192 107 61
0.85029 -0.660591 -13.8782 0.802773 0.315721 0.505842 159 73 38
0.852829 -0.66496 -13.88 0.405798 0.62229 0.669391 167 90 48
0.852932 -0.664887 -13.8791 0.397536 0.626295 0.670611 166 89 47
0.854286 -0.661993 -13.8805 0.307326 0.41628 0.855723 132 65 33
0.86055 -0.661943 -13.8823 0.555199 0.0256959 0.83132 120 53 29
0.86265 -0.665505 -13.8834 0.58685 0.0689464 0.806755 151 75 38
0.859889 -0.665051 -13.8844 0.388773 0.0126552 0.921247 142 74 40
0.868213 -0.665239 -13.8816 -0.595185 0.456659 0.661225 128 63 32
0.870444 -0.667949 -13.8783 0.314526 -0.0226852 0.948978 101 54 31
0.871645 -0.665344 -13.8798 0.509977 0.39029 0.766549 80 41 23
0.874831 -0.666902 -13.8831 0.794186 0.0803592 0.602338 114 55 32
0.874831 -0.666902 -13.8831 0.794186 0.0803592 0.602338 114 55 32
0.882734 -0.666586 -13.8975 0.656296 -0.396469 0.64194 144 68 36
0.879055 -0.667255 -13.8918 0.622621 0.1371 0.77042 136 64 35
0.891681 -0.670282 -13.9083 0.485531 -0.699147 0.524836 159 82 45
0.89536 -0.667181 -13.9056 0.534767 -0.523336 0.663433 127 55 27
0.900486 -0.669528 -13.905 0.760397 0.00443577 0.649443 148 70 37
0.905747 -0.668402 -13.9123 0.463057 -0.247449 0.851086 124 52 25
0.916012 -0.672037 -13.9203 0.49532 -0.564635 0.660186 164 74 34
0.91588 -0.671104 -13.9185 -0.0247384 -0.699756 0.713953 148 64 30
0.912824 -0.669785 -13.9171 0.177995 -0.698637 0.692982 134 55 27
0.919591 -0.67258 -13.9224 0.517206 -0.5342 0.668677 160 72 34
0.919962 -0.67305 -13.9227 -0.0312842 -0.766078 0.641986 165 77 37
0.926772 -0.672965 -13.9274 0.337762 -0.386168 0.858365 143 60 28
0.923281 -0.673033 -13.9257 0.385445 -0.351378 0.853209 154 67 32
0.923587 -0.672751 -13.9262 0.531481 -0.530098 0.660699 149 63 30
0.931 -0.673381 -13.9304 0.541837 -0.408984 0.734265 136 58 27
0.927296 -0.67325 -13.9287 0.502541 -0.51295 0.695942 149 64 30
0.937389 -0.67321 -13.9345 0.443865 -0.337642 0.830049 104 47 23
0.932947 -0.675405 -13.9295 0.622282 -0.469741 0.626186 158 75 40
0.957572 -0.679002 -13.9448 0.439924 -0.205923 0.874106 78 39 25
0.970829 -0.675741 -13.9093 -0.785385 -0.29212 0.545744 41 32 26
0.975666 -0.676337 -13.9106 -0.73154 -0.320069 0.602 34 26 21
0.985891 -0.679311 -13.9513 -0.701407 -0.402391 0.588311 57 50 35
0.989222 -0.679262 -13.9463 -0.777369 -0.180119 0.602706 60 54 40
0.993266 -0.678271 -13.9383 -0.691644 -0.426509 0.582854 90 78 60
1.04957 -0.686142 -14.0065 0.50728 0.0669997 0.859173 107 84 64
1.04995 -0.685407 -14.0003 0.474052 0.0470276 0.87924 110 87 65
1.05995 -0.68895 -14.0092 0.398988 0.145751 0.905299 100 81 63
1.0599 -0.688326 -14.0086 0.473664 0.0125805 0.880616 103 83 65
1.06472 -0.688939 -14.0175 0.480143 -0.0674502 0.874593 101 78 60
1.06472 -0.688939 -14.0175 0.480143 -0.0674502 0.874593 95 73 56
1.0664 -0.692053 -14.0188 0.475095 -0.260664 0.84044 86 66 55
1.06524 -0.692153 -14.017 0.453093 -0.0537782 0.88984 81 61 51
1.07682 -0.692053 -14.0276 0.472111 -0.0236085 0.881223 104 75 58
1.10168 -0.694367 -13.9912 -0.589015 -0.383938 0.711092 71 57 50
1.10489 -0.694932 -13.9918 -0.766572 -0.229949 0.599575 66 57 51
1.10703 -0.695992 -13.9917 -0.712705 -0.278849 0.643657 65 56 51
1.10996 -0.697077 -13.9869 -0.764786 -0.165314 0.622715 43 36 31
1.11511 -0.694617 -13.9844 -0.594679 0.554272 0.582357 74 64 57
1.11837 -0.694383 -13.9883 -0.61324 0.572651 0.544066 73 62 56
1.24222 -0.71121 -13.8339 -0.215996 0.737847 0.639474 154 129 111
1.24755 -0.708248 -13.8341 -0.496987 0.515326 0.698171 187 173 153
1.24744 -0.708409 -13.8328 -0.483549 0.53161 0.695393 185 171 151
0.583457 -0.642709 -14.2413 0.0525223 -0.689375 0.722498 241 249 252
0.589321 -0.642507 -14.2451 -0.109636 -0.469535 0.87608 235 243 247
0.596102 -0.642509 -14.2445 -0.191175 -0.421895 0.88626 126 125 127
0.60283 -0.642496 -14.2466 -0.206455 -0.443757 0.872042 148 130 120
0.611813 -0.643632 -14.2409 -0.618686 -0.345052 0.705809 139 113 97
0.625235 -0.642937 -14.2375 -0.587492 -0.424184 0.689145 164 125 119
0.676268 -0.651994 -14.1194 -0.342649 0.293202 0.892538 169 143 142
0.830746 -0.663994 -13.8673 0.419889 -0.0459304 0.906413 150 109 103
0.836933 -0.664242 -13.8711 0.566261 0.324129 0.757819 190 118 74
0.83342 -0.664225 -13.8675 0.419682 -0.0250101 0.907327 167 109 89
0.835877 -0.667079 -13.8703 0.560104 0.290791 0.775709 208 134 91
0.843248 -0.670003 -13.8746 0.56268 0.345215 0.751145 215 137 91
0.8454 -0.667157 -13.8772 0.63274 0.179283 0.753324 206 124 77
0.850911 -0.670982 -13.878 0.582296 0.301792 0.754886 209 132 82
0.847223 -0.669988 -13.877 0.436961 0.474813 0.763949 210 129 85
0.855723 -0.667624 -13.8843 0.536874 0.353345 0.766103 168 92 53
0.855797 -0.667772 -13.8842 0.514234 0.381694 0.768032 169 92 54
0.854798 -0.670989 -13.8842 0.586694 0.285472 0.757823 206 120 72
0.858323 -0.671478 -13.8847 0.537822 0.352655 0.765756 196 118 72
0.861411 -0.667612 -13.8853 0.350153 0.0543858 0.935113 180 100 56
0.865846 -0.670704 -13.8798 -0.109932 0.117043 0.987024 202 117 67
0.864687 -0.667545 -13.8835 0.141413 0.641837 0.753689 175 92 47
0.871004 -0.672505 -13.8774 0.0843429 -0.205194 0.97508 90 52 34
0.869504 -0.670181 -13.8777 -0.0520969 -0.388551 0.919953 118 64 37
0.871744 -0.670109 -13.88 0.614945 0.162001 0.77175 91 49 33
0.875635 -0.672104 -13.8806 0.792019 0.0866524 0.604315 192 108 60
0.875635 -0.672104 -13.8806 0.792019 0.0866524 0.604315 182 103 57
0.883066 -0.670658 -13.8984 0.626854 -0.480042 0.613689 173 91 50
0.880007 -0.674693 -13.8978 0.632789 -0.469903 0.615442 216 127 76
0.88099 -0.670161 -13.9008 0.622617 0.420053 0.66023 171 89 50
0.88099 -0.670161 -13.9008 0.622617 0.420053 0.66023 171 89 50
0.886272 -0.670984 -13.8984 0.789286 -0.256927 0.557688 166 87 47
0.891813 -0.673355 -13.9117 0.625855 -0.574423 0.527583 154 86 50
0.916772 -0.67423 -13.9226 0.435351 -0.41476 0.799027 160 83 43
0.928165 -0.677167 -13.9308 0.474998 -0.598718 0.644914 140 79 45
0.937663 -0.677367 -13.9366 0.548407 -0.490547 0.67721 161 76 35
0.933913 -0.681471 -13.9349 -0.391045 -0.757662 0.522524 134 78 49
0.934064 -0.676953 -13.9351 0.530418 -0.528817 0.662578 160 79 44
0.941421 -0.678125 -13.9382 0.425716 -0.63848 0.641178 154 73 34
0.94068 -0.682153 -13.9387 0.547419 -0.471079 0.691677 198 106 58
0.944383 -0.679568 -13.9354 0.371349 -0.705591 0.603524 159 76 33
0.976404 -0.683662 -13.9616 -0.582098 -0.663593 0.4699 65 44 30
0.98064 -0.683961 -13.9635 -0.780871 -0.433215 0.450072 67 50 31
1.06296 -0.696149 -14.0015 0.632654 -0.498728 0.592469 62 30 19
1.06839 -0.696972 -14.0243 0.352836 -0.514756 0.781366 88 35 17
1.06482 -0.696616 -14.0212 0.436427 -0.384091 0.813637 81 35 20
1.07828 -0.695571 -14.0282 0.609394 -0.0350155 0.792094 61 34 20
1.10046 -0.697285 -13.9917 -0.755078 -0.373019 0.539178 53 40 35
1.10519 -0.701621 -13.9902 -0.787015 -0.298082 0.540142 46 22 18
1.11099 -0.701048 -13.9834 -0.815541 -0.196851 0.54419 35 21 20
1.11221 -0.698502 -13.99 -0.81048 0.212678 0.545793 34 25 21
1.11199 -0.701808 -13.9817 -0.825126 -0.163878 0.540659 39 24 22
1.25027 -0.713715 -13.8144 -0.120746 0.697976 0.705868 157 134 117
1.2509 -0.713714 -13.8137 -0.207744 0.632786 0.745939 156 140 125
1.25079 -0.717311 -13.8028 0.113754 0.796403 0.593971 110 93 80
1.25665 -0.715738 -13.8073 -0.0983939 0.658452 0.746163 158 135 120
1.25636 -0.715288 -13.8059 0.0304701 0.757869 0.651695 158 136 120
1.25633 -0.715881 -13.8042 -0.186427 0.653606 0.733515 155 129 114
1.26459 -0.718301 -13.7895 0.0462014 0.732127 0.679599 144 117 101
0.579432 -0.647947 -14.2464 -0.0379111 -0.613246 0.788982 241 249 251
0.586017 -0.647946 -14.2476 0.127884 -0.420476 0.898246 240 248 252
0.592636 -0.647945 -14.2484 -0.0407559 -0.36609 0.929687 133 133 138
0.599875 -0.648502 -14.2475 -0.519909 -0.525735 0.673273 155 136 129
0.599428 -0.647946 -14.2477 -0.46589 -0.615554 0.635641 155 136 131
0.621604 -0.649251 -14.2409 -0.632528 -0.207453 0.746238 154 114 105
0.680548 -0.65507 -14.1206 -0.658607 0.159177 0.735459 138 118 114
0.688871 -0.655641 -14.1059 -0.685732 -0.00983206 0.727788 153 108 101
0.830612 -0.6714 -13.8673 0.0329122 -0.488552 0.871914 158 111 103
0.834568 -0.669905 -13.8691 0.512288 0.309785 0.800996 202 128 90
0.831817 -0.668838 -13.8699 0.386027 0.366951 0.846363 165 112 100
0.833322 -0.672879 -13.8673 0.530519 0.107908 0.840776 197 127 94
0.837753 -0.670766 -13.8702 0.592272 0.289336 0.751997 216 148 103
0.838504 -0.672667 -13.8697 0.617296 0.233471 0.751291 188 122 81
0.836015 -0.673956 -13.8692 0.62741 -0.0107172 0.778615 223 147 102
0.846204 -0.673198 -13.8755 0.426763 0.483755 0.764103 221 146 99
0.841924 -0.673362 -13.8726 0.590701 0.260809 0.763578 196 124 82
0.849402 -0.673736 -13.8787 0.600559 0.283488 0.747639 221 146 96
0.853166 -0.67437 -13.8814 0.597244 0.281149 0.751169 222 139 89
0.856739 -0.676248 -13.883 0.186016 0.108512 0.976536 208 130 88
0.866715 -0.677032 -13.879 -0.220228 -0.138147 0.965616 132 82 48
0.86566 -0.675934 -13.8793 -0.497442 0.146035 0.855117 177 112 67
0.867136 -0.673303 -13.8785 -0.170015 0.100824 0.98027 161 101 61
0.871794 -0.677097 -13.8786 -0.219933 -0.355643 0.908377 176 110 77
0.869119 -0.677278 -13.8781 0.195962 -0.334972 0.921625 95 60 37
0.872942 -0.674843 -13.8776 -0.44088 -0.472868 0.762903 170 104 67
0.875217 -0.67647 -13.8804 0.647097 0.0740608 0.758802 214 128 72
0.939353 -0.684072 -13.9431 0.68646 -0.423729 0.590954 207 116 67
0.984418 -0.690904 -13.9587 -0.809166 -0.228417 0.541365 96 75 47
0.980806 -0.691985 -13.9266 -0.770468 -0.0923399 0.630755 92 74 51
0.981188 -0.688262 -13.9535 -0.779474 -0.144771 0.609476 77 60 39
1.03828 -0.695478 -14.0037 0.573248 -0.445542 0.687662 105 50 28
1.04496 -0.701214 -14.0103 0.35428 -0.674309 0.647915 163 107 70
1.08397 -0.702496 -14.0344 0.251639 -0.755419 0.604996 176 83 39
1.09677 -0.707042 -14.0453 0.154311 -0.673423 0.722973 158 83 42
1.11089 -0.704317 -13.9768 -0.82446 -0.165092 0.541304 55 34 27
1.13594 -0.710482 -14.0378 -0.932345 0.0182673 0.361109 83 74 57
1.1353 -0.711298 -14.0311 -0.746925 0.548067 0.376465 88 79 61
1.25416 -0.718743 -13.7941 -0.267721 0.578463 0.770523 97 81 69
1.25602 -0.719346 -13.7836 -0.156683 0.547445 0.822043 99 80 67
1.25696 -0.720054 -13.802 -0.388854 0.433019 0.813195 109 87 72
1.25691 -0.71968 -13.7986 -0.170988 0.668251 0.724019 101 80 66
1.26801 -0.720478 -13.7882 -0.211217 -0.000305694 0.977439 134 108 91
0.57233 -0.650914 -14.2511 -0.220568 -0.80127 0.556162 242 248 253
0.580149 -0.654185 -14.2453 0.36091 -0.751012 0.552924 240 248 252
0.590922 -0.655508 -14.2517 -0.242931 -0.302763 0.921585 126 121 126
0.597562 -0.656098 -14.2561 -0.581868 -0.413683 0.700212 147 133 120
0.605716 -0.653527 -14.248 -0.713543 0.108136 0.692215 144 119 105
0.612518 -0.653525 -14.2452 -0.227498 0.136127 0.964217 130 92 78
0.619863 -0.656052 -14.2392 -0.650828 -0.229839 0.7236 160 119 111
0.670771 -0.662021 -14.1227 -0.588706 0.122839 0.798959 163 126 123
0.676893 -0.659186 -14.1189 -0.505293 -0.0323767 0.86234 179 156 156
0.683601 -0.660039 -14.1094 -0.655697 -0.389034 0.647082 136 99 96
0.83398 -0.676005 -13.8679 0.177619 0.31079 0.933735 220 142 103
0.830995 -0.676268 -13.866 0.482189 0.0887504 0.87156 163 111 97
0.832634 -0.678506 -13.8668 0.229091 0.244867 0.942103 208 135 103
0.840242 -0.675987 -13.8724 0.64168 0.239484 0.728625 207 133 88
0.838363 -0.679307 -13.8686 0.647972 0.204729 0.733633 232 156 108
0.843644 -0.67714 -13.8731 0.571927 0.0926635 0.815054 210 136 89
0.849172 -0.676058 -13.8777 0.534967 0.201871 0.820401 233 154 103
0.855822 -0.678714 -13.8846 -0.471857 -0.300445 0.828905 214 131 87
0.857482 -0.681388 -13.8836 0.685993 -0.243083 0.685802 207 135 95
0.861856 -0.680803 -13.8826 -0.743714 -0.445712 0.498227 211 132 92
0.864085 -0.68136 -13.8807 -0.572649 -0.00291421 0.819796 166 101 70
0.864127 -0.678003 -13.8816 -0.603045 -0.191071 0.774486 190 121 80
0.866482 -0.681755 -13.8793 -0.0183604 -0.240357 0.970511 97 55 35
0.867809 -0.679505 -13.8787 0.0405975 -0.213429 0.976115 94 57 37
0.870593 -0.679422 -13.8792 -0.20319 -0.340837 0.917902 182 115 82
0.872591 -0.680883 -13.8841 0.816539 -0.0573602 0.574433 219 137 91
0.904374 -0.687025 -13.9312 -0.725474 0.375686 0.57667 91 81 71
1.03445 -0.70066 -14.0051 0.635141 -0.249724 0.730913 181 97 52
1.03422 -0.700604 -14.0044 0.572833 -0.310207 0.758705 175 92 49
1.04509 -0.704904 -14.0063 0.308157 -0.670162 0.67522 185 144 105
1.04597 -0.702039 -14.007 0.279927 -0.706648 0.649838 159 107 73
1.07752 -0.706301 -14.0345 0.418351 -0.633845 0.650556 156 82 42
0.569566 -0.657515 -14.2498 -0.320822 -0.744483 0.585507 242 248 253
0.580294 -0.659834 -14.2518 0.458298 -0.563623 0.687234 238 245 250
0.589809 -0.662662 -14.2522 -0.683267 -0.114964 0.721062 146 134 134
0.595721 -0.66277 -14.2535 -0.514001 -0.360101 0.778544 144 129 117
0.609377 -0.664417 -14.249 -0.321113 -0.371494 0.871136 150 104 93
0.616911 -0.662964 -14.2431 -0.634739 -0.280537 0.720003 162 120 112
0.675223 -0.667108 -14.1189 -0.614892 0.129311 0.777937 175 143 142
0.682009 -0.667036 -14.1075 -0.456229 0.06164 0.887725 134 106 99
0.688115 -0.667038 -14.1046 -0.666869 0.152591 0.729385 146 102 95
0.829761 -0.678919 -13.8651 0.458489 0.00869243 0.888658 156 110 100
0.831351 -0.681104 -13.8653 0.579609 0.138651 0.803012 174 120 99
0.834218 -0.680951 -13.8668 0.200149 0.17563 0.963895 236 163 121
0.835695 -0.683155 -13.8678 0.262656 0.628321 0.732273 237 166 121
0.844216 -0.680708 -13.873 0.721099 -0.133842 0.679781 242 163 114
0.846312 -0.683346 -13.8754 0.714322 -0.340077 0.611631 226 154 108
0.853932 -0.68461 -13.8854 0.269025 -0.196042 0.94297 218 139 93
0.851171 -0.684534 -13.8807 0.648906 -0.083227 0.756303 219 147 99
0.856624 -0.684553 -13.8833 -0.430777 -0.159861 0.888187 215 135 93
0.864795 -0.688315 -13.8824 0.131014 -0.376219 0.917221 113 61 40
0.864781 -0.684063 -13.8797 0.0589842 -0.496985 0.865752 101 52 35
0.862173 -0.683857 -13.8804 0.184329 -0.365799 0.912258 186 119 85
0.867296 -0.688565 -13.8823 -0.23611 -0.313688 0.919702 211 140 101
0.870143 -0.688074 -13.8847 0.467349 -0.189859 0.863446 233 155 107
0.866309 -0.686069 -13.8817 0.0680624 -0.471363 0.879309 129 79 59
0.871846 -0.685267 -13.8852 0.689557 -0.125861 0.713211 233 149 99
0.898968 -0.6923 -13.9349 -0.704387 0.41522 0.5757 191 167 152
0.902421 -0.691404 -13.9313 -0.742836 0.328904 0.58311 89 81 72
0.906833 -0.689917 -13.9262 -0.368266 0.0315207 0.929186 96 76 64
0.910228 -0.689396 -13.9285 0.756423 0.11066 0.644654 200 170 145
1.08696 -0.714129 -14.0391 0.772663 0.211358 0.598599 183 113 72
1.12809 -0.722086 -14.0316 -0.781036 -0.32718 0.531917 125 109 72
1.12603 -0.717794 -14.0284 -0.831156 -0.156606 0.53353 103 87 58
1.19755 -0.727743 -14.1541 -0.725749 -0.446871 0.523063 141 82 52
1.19652 -0.728077 -14.1518 -0.792457 -0.350809 0.498944 150 93 61
0.566363 -0.664591 -14.2607 -0.584225 -0.473641 0.659049 242 248 253
0.581009 -0.665942 -14.2595 -0.413698 -0.547078 0.727708 180 181 186
0.588903 -0.667002 -14.2527 -0.705357 -0.176753 0.686462 153 140 138
0.602048 -0.664404 -14.2526 -0.58468 -0.258403 0.76901 124 98 84
0.611445 -0.671315 -14.2478 -0.609694 0.31626 0.72681 160 113 106
0.619358 -0.669875 -14.2403 -0.675076 -0.0311713 0.73709 164 122 115
0.670514 -0.673025 -14.1229 -0.675036 0.0905889 0.732202 152 115 109
0.671888 -0.673116 -14.121 -0.667524 0.127407 0.733607 158 124 121
0.678216 -0.673069 -14.1159 -0.172364 0.0928754 0.980645 151 133 131
0.684565 -0.673037 -14.11 -0.679712 0.0786197 0.729253 126 94 87
0.69273 -0.672398 -14.0956 -0.68685 -0.0549869 0.724716 140 98 90
0.829323 -0.68448 -13.8641 0.64261 -0.0261614 0.765746 158 109 101
0.832166 -0.684513 -13.8653 0.414121 0.243219 0.877125 211 139 105
0.829197 -0.68816 -13.863 0.647391 -0.018258 0.76194 155 106 94
0.831022 -0.687043 -13.8646 -0.234127 0.297708 0.925502 182 120 100
0.833872 -0.687356 -13.8642 -0.184307 0.176113 0.966962 229 155 117
0.835164 -0.689565 -13.8645 0.289164 0.714705 0.636852 220 151 108
0.847612 -0.689981 -13.8751 0.730366 -0.4477 0.515879 232 154 106
0.854402 -0.691208 -13.8788 0.842215 -0.136978 0.521451 224 155 107
0.852398 -0.686933 -13.8814 0.62524 -0.107545 0.772987 223 151 103
0.857517 -0.690968 -13.8839 -0.175252 -0.0843022 0.980908 195 119 79
0.860091 -0.691031 -13.883 -0.218826 -0.122126 0.968091 129 77 54
0.863041 -0.69071 -13.8837 0.042174 -0.43452 0.899674 98 60 44
0.864248 -0.693014 -13.8843 0.245606 -0.202283 0.948029 172 121 92
0.865898 -0.690672 -13.884 0.305047 -0.396456 0.865892 193 125 89
0.866132 -0.693664 -13.8825 0.19075 -0.0649382 0.979488 223 150 107
0.866156 -0.693615 -13.8821 0.133219 -0.0577786 0.989401 224 150 107
0.868349 -0.69095 -13.8837 0.479602 -0.227735 0.847419 233 154 107
0.869641 -0.693313 -13.8875 0.695758 -0.0876765 0.712905 235 159 114
0.901052 -0.694841 -13.9307 -0.6403 0.237201 0.730583 134 128 118
0.900981 -0.695804 -13.9312 -0.498471 0.197439 0.844124 137 132 121
0.903466 -0.694506 -13.9279 -0.74252 0.237178 0.626427 112 100 91
0.90313 -0.69795 -13.9286 -0.726035 0.372745 0.57787 114 103 94
0.908051 -0.69834 -13.9274 -0.185241 0.0816796 0.979293 173 148 132
0.908766 -0.694755 -13.9281 -0.578851 0.0763011 0.811856 184 159 142
0.949663 -0.704856 -13.9438 0.590982 -0.0369273 0.805839 222 145 97
0.950522 -0.703842 -13.9485 0.692949 -0.136093 0.708026 223 157 113
0.978788 -0.705897 -13.9261 -0.707603 -0.450581 0.544312 136 117 82
0.978824 -0.708386 -13.9315 -0.681161 -0.39079 0.619115 135 118 82
1.0664 -0.718458 -14.0376 0.662159 -0.437274 0.608553 198 185 151
1.07099 -0.717453 -14.0358 0.661846 -0.397505 0.635571 168 145 113
1.07323 -0.721982 -14.0395 0.690197 -0.14054 0.709843 139 110 84
1.12053 -0.722807 -14.0145 -0.830063 -0.282095 0.48106 118 100 68
1.13073 -0.726806 -14.0316 -0.781253 -0.327983 0.531103 146 128 87
1.12716 -0.725305 -14.0306 -0.836903 -0.267848 0.477336 131 116 80
1.13038 -0.726513 -14.0349 -0.788087 -0.311018 0.531213 145 127 86
1.12667 -0.724905 -14.0329 -0.827269 -0.294034 0.478717 129 114 79
1.13385 -0.728193 -14.0296 -0.811013 -0.247445 0.530122 152 131 88
0.571113 -0.671892 -14.2629 -0.370694 -0.182043 0.910739 240 248 253
0.578182 -0.672152 -14.2615 -0.347428 -0.231017 0.908804 179 181 185
0.585008 -0.672158 -14.2594 -0.30509 -0.23356 0.923239 144 133 132
0.592718 -0.669769 -14.261 -0.652611 -0.187919 0.73402 139 125 112
0.599445 -0.670998 -14.2531 -0.392446 -0.00879838 0.919733 127 107 93
0.605845 -0.670987 -14.2514 -0.416373 0.149792 0.89677 144 100 90
0.664317 -0.676238 -14.1304 -0.562937 0.426571 0.707911 162 122 121
0.681321 -0.678287 -14.1124 -0.488481 0.134786 0.862101 127 95 89
0.683655 -0.681623 -14.1089 -0.675818 0.0933305 0.731136 129 99 91
0.830103 -0.693244 -13.8639 -0.780759 0.0540234 0.622493 174 120 99
0.832286 -0.689456 -13.8639 -0.138812 0.340356 0.929994 213 146 114
0.843518 -0.691341 -13.8708 0.619111 -0.479284 0.622083 232 161 114
0.846261 -0.696056 -13.8734 0.790406 -0.277604 0.546071 226 145 98
0.850237 -0.693897 -13.8771 0.798958 -0.232892 0.554461 231 155 109
0.856695 -0.694991 -13.8825 0.793034 -0.182366 0.58124 208 146 105
0.859883 -0.696937 -13.8833 0.458886 0.252044 0.851996 112 70 50
0.861505 -0.693347 -13.8831 0.400941 -0.0970016 0.910954 98 70 57
0.865097 -0.695691 -13.8837 0.57948 0.155324 0.800048 210 147 109
0.868241 -0.696967 -13.8855 0.687288 -0.0153438 0.726223 238 161 113
0.90064 -0.69928 -13.9287 -0.610051 0.104196 0.785481 145 140 129
0.906768 -0.701899 -13.924 0.597003 0.183923 0.780871 128 109 96
0.902621 -0.701431 -13.9277 -0.700957 0.357156 0.617333 107 98 91
0.91109 -0.702608 -13.9269 0.599808 0.154241 0.785137 198 179 159
0.975736 -0.713576 -13.9516 -0.766791 -0.193505 0.612036 127 117 86
0.977656 -0.708767 -13.9272 -0.717687 -0.432813 0.545526 133 117 82
0.976565 -0.71162 -13.9283 -0.728066 -0.50555 0.462967 142 132 97
0.978369 -0.712641 -13.9227 -0.729225 -0.411093 0.547023 157 139 99
0.980125 -0.709556 -13.9238 -0.726141 -0.419149 0.545007 157 136 93
1.06324 -0.724006 -14.0411 0.325262 -0.0787612 0.942338 223 212 184
1.0809 -0.728155 -14.0356 0.274054 -0.139849 0.951492 183 122 80
1.10817 -0.730423 -14.0585 -0.279434 0.309788 0.908817 165 104 72
1.11318 -0.730419 -14.057 -0.261281 0.232183 0.936922 130 85 53
1.1283 -0.732204 -14.0325 -0.717997 -0.290729 0.632421 155 148 104
1.19774 -0.742747 -14.1394 -0.0298557 0.0743971 0.996782 202 184 157
0.568303 -0.678175 -14.264 -0.657853 -0.0620828 0.750583 237 246 251
0.574911 -0.674943 -14.2689 0.19947 -0.34887 0.915697 187 195 200
0.583415 -0.678141 -14.2665 0.280575 -0.0649771 0.95763 142 131 124
0.588799 -0.678126 -14.2704 0.203605 -0.133923 0.96985 117 108 99
0.593547 -0.677183 -14.2653 -0.55433 0.425175 0.715503 116 100 87
0.600854 -0.677203 -14.2599 -0.303903 0.0207801 0.952476 134 97 90
0.606112 -0.683463 -14.2574 -0.656813 0.146908 0.739605 158 114 108
0.613109 -0.679022 -14.2495 -0.674627 -0.0384963 0.737155 155 116 109
0.665489 -0.682635 -14.1174 -0.337316 0.0346718 0.940753 158 116 113
0.670163 -0.681647 -14.1213 -0.668546 0.0650703 0.740819 155 119 115
0.678436 -0.684973 -14.1041 -0.696704 -0.276763 0.661821 139 120 115
0.688488 -0.686641 -14.1037 -0.512461 -0.0421693 0.857674 136 93 82
0.827423 -0.697042 -13.8683 -0.842753 0.0606163 0.534876 152 104 95
0.832745 -0.697696 -13.8639 0.177222 0.0231374 0.983899 220 145 98
0.830094 -0.697569 -13.8648 -0.0625616 0.0312899 0.99755 178 116 88
0.828823 -0.695599 -13.8631 0.158564 0.161976 0.973972 157 101 88
0.835339 -0.697583 -13.8651 0.474589 0.503709 0.721833 234 165 124
0.838641 -0.696773 -13.8681 0.592623 -0.152603 0.790892 233 157 114
0.851899 -0.701242 -13.8758 0.579328 -0.128529 0.804897 225 146 99
0.857544 -0.699717 -13.8809 0.673706 0.138971 0.725815 183 116 79
0.859896 -0.702193 -13.8816 0.709249 -0.106977 0.696794 102 64 47
0.866158 -0.703194 -13.8835 0.724489 -0.113587 0.679863 228 152 105
0.866134 -0.69959 -13.8837 0.630608 -0.0331585 0.775393 230 158 113
0.900495 -0.70545 -13.9285 -0.750128 0.32237 0.577396 162 156 140
0.906398 -0.707359 -13.9241 -0.816362 -0.0383602 0.576265 114 105 97
0.909022 -0.706472 -13.924 0.548526 0.271715 0.790753 207 190 172
0.974222 -0.716008 -13.954 -0.765322 -0.197702 0.612532 131 120 89
0.977982 -0.714964 -13.9508 -0.666097 -0.144872 0.731661 138 129 95
0.979337 -0.718438 -13.9464 -0.780157 -0.121571 0.613657 148 139 104
0.980401 -0.716218 -13.9498 -0.765131 -0.205974 0.61004 151 141 103
1.03223 -0.723997 -14.0031 0.323829 0.415139 0.850173 232 168 116
1.06082 -0.728439 -14.039 0.51293 -0.276621 0.81264 216 208 177
1.06984 -0.72815 -14.0351 -0.339971 -0.568416 0.749215 176 158 130
1.06874 -0.732831 -14.0337 0.239755 0.291299 0.926101 157 142 115
1.07402 -0.732823 -14.0342 0.448678 0.270277 0.851844 160 115 90
1.07591 -0.728166 -14.0363 0.315327 0.0135213 0.948887 165 111 78
1.0872 -0.730595 -14.0309 0.72347 -0.149174 0.674046 225 144 91
1.09479 -0.735601 -14.0336 0.756356 0.148158 0.637161 225 167 123
1.09125 -0.733343 -14.0328 0.660911 0.0484939 0.748896 217 168 126
1.09909 -0.732636 -14.0526 0.790139 0.00932746 0.612856 204 142 103
1.11068 -0.734899 -14.0588 -0.226933 0.123951 0.96599 145 95 67
1.11866 -0.734831 -14.0516 -0.755908 -0.0967065 0.647495 133 116 78
1.12326 -0.737936 -14.0356 -0.739433 -0.206077 0.640914 145 144 105
1.12598 -0.737632 -14.0328 -0.695214 -0.347029 0.629483 152 152 110
1.20065 -0.747411 -14.1431 -0.810125 -0.00671311 0.586218 207 188 165
0.567287 -0.680417 -14.2612 0.200916 -0.148037 0.968358 238 246 251
0.579225 -0.683446 -14.2706 0.0174819 -0.63737 0.77036 135 133 141
0.586465 -0.683298 -14.2674 0.267242 -0.0477185 0.962447 130 122 119
0.596036 -0.683099 -14.2654 -0.521819 0.143857 0.840839 108 86 78
0.6116 -0.688357 -14.2532 -0.670087 0.0232081 0.74192 160 121 114
0.664905 -0.691157 -14.1169 -0.626935 0.0991823 0.772732 156 116 112
0.670507 -0.687341 -14.1144 -0.667432 0.0490303 0.743055 153 117 113
0.676605 -0.690102 -14.1089 -0.551662 -0.0941815 0.828733 157 136 130
0.682758 -0.690094 -14.1052 -0.478343 0.056855 0.87633 130 97 89
0.82706 -0.702173 -13.8649 -0.233472 0.29735 0.925783 150 102 93
0.825773 -0.699442 -13.868 -0.77609 0.0905393 0.624089 152 108 103
0.829857 -0.702335 -13.8632 -0.135911 0.329377 0.934365 186 126 101
0.831421 -0.700025 -13.8633 -0.0288877 0.107763 0.993757 215 149 110
0.833629 -0.704558 -13.8638 0.474309 -0.147221 0.867962 235 165 118
0.835073 -0.701967 -13.865 0.481445 -0.124844 0.867539 235 162 120
0.857168 -0.70379 -13.8806 0.658821 -0.0592012 0.749967 175 109 70
0.85404 -0.703792 -13.8785 0.690014 -0.136738 0.710763 229 149 100
0.859671 -0.706423 -13.8822 0.707664 -0.066703 0.703394 100 61 43
0.862642 -0.704421 -13.885 0.800642 -0.286208 0.526362 168 119 91
0.900649 -0.711964 -13.93 -0.578996 0.35775 0.732651 172 167 151
0.906134 -0.712644 -13.9228 -0.813904 0.0246563 0.580476 134 125 116
0.903705 -0.714793 -13.9252 -0.783217 0.288489 0.550768 130 124 117
0.903627 -0.711719 -13.9266 -0.617189 0.298634 0.727939 149 135 122
0.910751 -0.711242 -13.9225 0.196179 0.122482 0.972889 195 183 161
0.907083 -0.710281 -13.9214 -0.0697935 0.130516 0.988987 186 168 152
0.975266 -0.719818 -13.953 -0.772264 -0.164021 0.613763 130 122 90
0.976611 -0.723664 -13.9492 -0.337647 -0.158618 0.927812 137 134 105
0.979458 -0.722276 -13.9499 -0.611619 -0.152302 0.776355 153 148 113
0.979037 -0.723673 -13.9522 -0.601606 -0.0260554 0.798368 152 148 114
1.03282 -0.732582 -14.0011 0.0551633 -0.0925381 0.99418 233 180 134
1.07177 -0.737286 -14.032 0.602841 -0.0465812 0.7965 187 154 129
1.07734 -0.737443 -14.0309 0.385174 0.0632145 0.920676 214 145 105
1.0829 -0.737546 -14.0354 0.549338 0.0800476 0.831758 221 148 96
1.09894 -0.738291 -14.0398 0.755576 0.104301 0.646705 187 137 99
1.09586 -0.741148 -14.0332 0.664478 0.0619142 0.744739 222 168 126
1.10743 -0.739217 -14.0548 0.214395 -0.065226 0.974567 160 102 72
1.10967 -0.743544 -14.0543 0.22721 -0.0202597 0.973635 146 98 70
1.18954 -0.753579 -14.1253 -0.40335 0.257491 0.87807 124 116 97
1.20065 -0.755777 -14.1422 -0.7601 0.430399 0.486832 228 211 183
1.16509 -0.73952 -13.8494 0.756113 -0.00471816 0.654424 153 125 94
1.16871 -0.742012 -13.851 0.684489 -0.0154024 0.72886 239 207 176
0.564975 -0.689787 -14.2742 0.0536635 -0.691141 0.720725 239 245 251
0.571915 -0.686667 -14.274 -0.0140047 -0.696226 0.717686 228 234 241
0.588791 -0.688433 -14.2704 -0.55791 0.417866 0.717024 206 215 220
0.597765 -0.694594 -14.2611 -0.482246 0.539564 0.690152 170 159 163
0.605382 -0.695935 -14.2541 -0.556049 0.434203 0.708715 158 118 113
0.671918 -0.694712 -14.1126 -0.476792 -0.047229 0.877746 157 126 122
0.679563 -0.696118 -14.1062 -0.602843 -0.0507711 0.796243 124 92 89
0.685268 -0.696248 -14.1084 -0.506171 0.0237845 0.862105 139 93 82
0.690777 -0.699931 -14.1003 -0.744866 0.0186272 0.666954 136 84 74
0.825493 -0.704355 -13.8661 -0.7725 0.114392 0.624627 151 106 100
0.831001 -0.709294 -13.8623 0.17409 0.126736 0.97654 229 157 118
0.829651 -0.707109 -13.8616 -0.120692 0.322037 0.939002 198 133 106
0.829722 -0.706947 -13.8623 0.119316 -0.0181008 0.992691 200 134 106
0.828317 -0.704622 -13.8636 -0.215013 0.257019 0.942184 162 103 89
0.832263 -0.707098 -13.8621 0.363489 -0.126416 0.922981 235 162 115
0.834789 -0.707032 -13.8636 0.602454 -0.141989 0.785422 242 170 130
0.856816 -0.712685 -13.8786 0.663173 0.0149904 0.748316 159 95 64
0.856743 -0.708528 -13.879 0.71376 -0.0546933 0.698252 182 113 75
0.859577 -0.712704 -13.8799 0.463515 0.0136085 0.885985 101 64 48
0.862062 -0.709268 -13.8825 0.271104 0.155662 0.94988 153 107 84
0.86348 -0.711838 -13.8821 0.550509 0.133324 0.824114 201 137 100
0.866361 -0.713068 -13.8835 0.67471 -0.0840352 0.733284 231 158 109
0.865434 -0.709525 -13.8833 0.671973 -0.0318392 0.739891 231 156 110
0.899614 -0.715718 -13.9292 -0.688444 0.216675 0.692168 190 185 170
0.904991 -0.7187 -13.9213 -0.632171 0.090898 0.769479 147 135 123
0.901332 -0.71602 -13.9303 -0.747651 0.48209 0.456734 162 161 155
0.905405 -0.715328 -13.9208 -0.670665 0.0942259 0.735751 140 126 114
0.91026 -0.718455 -13.9221 0.365858 0.0236675 0.93037 200 191 169
0.944529 -0.724378 -13.9427 -0.146327 0.539032 0.829478 221 146 102
0.974346 -0.726406 -13.9567 -0.573336 0.216454 0.790211 129 120 92
0.972577 -0.727935 -13.9546 -0.756341 0.228416 0.613005 128 115 84
0.972604 -0.727934 -13.9544 -0.757519 0.227689 0.611819 128 115 85
0.977225 -0.7256 -13.9551 -0.494134 0.207367 0.844293 146 141 109
1.0455 -0.737325 -14.0219 0.734779 0.371476 0.567543 199 190 165
1.0713 -0.743153 -14.0322 0.649641 -0.0431519 0.759016 187 155 129
1.06731 -0.739936 -14.0314 0.634254 0.0218236 0.772817 167 155 130
1.07955 -0.742173 -14.0275 0.442894 0.0721249 0.893668 228 152 104
1.08855 -0.74216 -14.0312 0.791567 -0.0159448 0.610875 216 143 93
1.08459 -0.744984 -14.0246 0.697691 0.427809 0.574636 226 151 102
1.09307 -0.744693 -14.0351 0.686373 0.115577 0.718007 228 148 100
1.09943 -0.744307 -14.0373 0.644047 -0.056786 0.762875 185 136 100
1.09603 -0.74697 -14.038 0.66527 0.0452164 0.745232 219 141 96
1.10302 -0.747476 -14.0415 0.786864 0.0850644 0.611236 170 127 95
1.18195 -0.758561 -14.1189 -0.240771 0.0512696 0.969227 139 114 93
1.1872 -0.758705 -14.1256 -0.25111 0.145592 0.956947 97 87 71
1.19295 -0.758842 -14.127 0.334703 0.258232 0.906251 190 180 158
1.28841 -0.776232 -14.2129 0.223196 -0.00947777 0.974728 146 111 91
0.590676 -0.695915 -14.2647 -0.603177 0.328514 0.726812 234 245 252
0.668258 -0.700615 -14.116 -0.736057 0.0241484 0.676489 151 110 107
0.663065 -0.69941 -14.1234 -0.691926 0.243183 0.679779 154 114 109
0.674565 -0.700463 -14.1095 -0.0948382 0.0241747 0.995199 159 132 128
0.680139 -0.703971 -14.1073 -0.521559 0.0585221 0.851206 127 91 87
0.826053 -0.709579 -13.8611 0.109747 0.789142 0.604327 149 105 95
0.828644 -0.714091 -13.8603 0.029209 0.0637987 0.997535 183 123 97
0.827329 -0.711689 -13.8619 0.0585524 0.0660177 0.996099 156 103 88
0.831411 -0.714096 -13.8608 0.258126 0.234564 0.937204 233 159 117
0.832604 -0.711746 -13.8618 0.303483 0.279551 0.910905 233 157 112
0.838668 -0.714412 -13.8658 0.68498 -0.102484 0.721318 234 157 112
0.84387 -0.716163 -13.8693 0.531013 0.0192806 0.847144 237 158 114
0.854269 -0.71462 -13.8778 0.640119 -0.0330092 0.767567 221 147 107
0.858225 -0.715376 -13.8794 0.444534 0.0762174 0.892514 104 63 44
0.860797 -0.715756 -13.8775 -0.713734 0.194301 0.672927 131 95 79
0.857061 -0.717978 -13.8791 0.285437 0.0575424 0.956668 137 87 63
0.864354 -0.715415 -13.8821 0.670733 0.0868001 0.736602 222 149 106
0.879117 -0.717396 -13.8967 0.791667 0.155478 0.590838 224 155 108
0.904726 -0.721989 -13.9229 -0.631203 0.0756567 0.771919 168 156 143
0.909991 -0.722365 -13.9223 0.508326 -0.0558096 0.859354 200 189 166
0.948263 -0.727907 -13.942 0.733063 -0.116815 0.670054 212 144 101
0.950945 -0.730876 -13.9437 0.605262 -0.0988785 0.789862 205 140 100
0.949431 -0.727583 -13.9464 0.483627 -0.114842 0.867708 213 147 106
0.978898 -0.734485 -13.9446 -0.769777 0.182968 0.611528 159 158 128
1.04566 -0.738071 -13.9269 0.558626 -0.473584 0.680922 216 201 169
1.05213 -0.743634 -13.9231 0.624805 0.550783 0.553405 217 198 167
1.05231 -0.743676 -13.9215 0.555219 0.634277 0.537981 215 196 165
1.08953 -0.748311 -14.0233 0.754714 0.0845774 0.650579 229 146 100
1.09857 -0.749748 -14.0346 0.723683 0.177908 0.666807 204 136 93
1.10366 -0.753677 -14.0397 0.745347 -0.238327 0.622622 177 137 110
1.10768 -0.751927 -14.0467 0.726679 -0.236153 0.645112 164 107 77
1.18447 -0.763688 -14.1266 -0.285556 0.122431 0.950509 100 89 74
1.19014 -0.763638 -14.1256 0.169812 0.126285 0.977352 153 135 112
1.16188 -0.753283 -13.8514 -0.44512 0.185447 0.876058 132 118 93
1.16738 -0.753305 -13.8475 -0.0353856 0.455772 0.889393 216 174 143
0.594136 -0.703007 -14.2571 -0.145589 0.0264343 0.988992 224 232 238
0.600662 -0.703006 -14.2559 -0.180375 0.081786 0.980192 152 122 124
0.60769 -0.702836 -14.251 -0.21127 0.0702027 0.974903 161 121 114
0.67218 -0.708995 -14.1073 0.0637364 0.71265 0.698619 160 129 126
0.678913 -0.711182 -14.1092 0.00717884 0.757346 0.652974 96 67 60
0.685818 -0.708128 -14.1003 -0.560881 0.235054 0.793827 136 90 75
0.828859 -0.718472 -13.861 0.0154682 0.15174 0.988299 201 129 99
0.826282 -0.718636 -13.8595 -0.18671 0.0341187 0.981822 154 103 88
0.83017 -0.716342 -13.8605 0.187285 0.313295 0.931005 225 154 115
0.831462 -0.718392 -13.8618 0.640197 -0.100066 0.761666 230 151 105
0.854033 -0.718545 -13.8769 0.677901 0.00183367 0.735151 214 138 98
0.854042 -0.72268 -13.8769 0.686491 0.0340453 0.726341 205 130 91
0.85559 -0.720463 -13.8778 0.494043 0.16091 0.854418 185 117 85
0.85758 -0.722308 -13.8786 0.28663 0.170683 0.942714 105 58 43
0.860428 -0.722263 -13.8797 0.148444 0.182524 0.971931 131 91 75
0.861717 -0.719892 -13.8802 0.189576 0.157603 0.969135 168 119 95
0.858443 -0.720431 -13.8793 0.392742 0.152294 0.906951 99 59 46
0.863224 -0.722251 -13.8802 0.698339 0.00320573 0.71576 214 153 116
0.865807 -0.720288 -13.8798 0.675823 -0.0920925 0.731288 232 162 117
0.880584 -0.723049 -13.8953 0.736527 0.152912 0.658897 223 151 110
0.87756 -0.72655 -13.8934 0.773975 0.193686 0.602866 233 173 133
0.891361 -0.724959 -13.9116 0.621198 0.280825 0.731608 196 185 166
0.895677 -0.726335 -13.916 0.829979 0.199001 0.521088 199 190 161
0.901093 -0.727551 -13.9235 -0.0194558 0.328654 0.94425 167 165 155
0.899254 -0.73023 -13.9215 0.147741 0.336158 0.930145 162 158 139
0.909605 -0.728301 -13.9243 0.69532 0.329878 0.638522 187 169 147
0.905699 -0.727561 -13.9242 0.669559 0.386851 0.634064 186 170 158
0.947488 -0.732671 -13.942 0.732798 -0.116288 0.670436 222 154 110
0.952509 -0.732986 -13.9488 0.624807 -0.0373506 0.779885 186 128 94
0.95025 -0.735612 -13.9441 0.609331 -0.100966 0.786461 206 139 100
0.967804 -0.739782 -13.9578 0.157192 0.251987 0.954879 83 56 44
0.972737 -0.739004 -13.9491 -0.745522 -0.150924 0.649167 68 59 46
0.975211 -0.740337 -13.9466 -0.784716 -0.0536701 0.617527 91 85 72
0.974906 -0.736461 -13.9469 -0.779662 0.00340424 0.626191 133 126 106
0.977108 -0.738259 -13.9443 -0.786531 -0.0425049 0.616087 82 74 63
0.975253 -0.740333 -13.9463 -0.784927 -0.0581619 0.616852 91 85 72
0.975777 -0.738397 -13.9457 -0.782566 0.0983467 0.61475 81 72 62
0.975212 -0.740337 -13.9466 -0.785102 -0.0565621 0.616778 91 85 72
0.976441 -0.740102 -13.9346 -0.71706 -0.169865 0.675997 90 85 69
0.985488 -0.739193 -13.9075 0.0408388 -0.670246 0.741015 122 115 94
1.04607 -0.744513 -13.9355 0.628375 0.551187 0.548943 191 165 146
1.04978 -0.748412 -13.9307 0.739597 0.26969 0.616655 175 151 129
1.08314 -0.751261 -14.0208 0.692502 0.440239 0.571516 198 144 114
1.08476 -0.750492 -13.951 0.711353 0.177828 0.679966 182 140 118
1.0839 -0.75199 -13.9534 0.73691 0.262697 0.622859 146 114 96
1.18737 -0.770278 -14.1265 0.538928 0.16659 0.825715 149 131 110
1.19309 -0.768376 -14.1224 0.249949 0.61732 0.74595 200 183 161
1.3082 -0.78444 -14.1167 0.727076 0.0706212 0.682916 197 137 102
0.591886 -0.708629 -14.2533 0.566838 0.0200121 0.823586 234 244 251
0.596539 -0.708692 -14.2598 -0.181762 0.225171 0.957215 167 156 159
0.59593 -0.711559 -14.2581 0.116507 0.165181 0.979358 177 171 175
0.603991 -0.708659 -14.2533 -0.22572 0.136122 0.964635 158 116 112
0.607248 -0.714376 -14.2502 0.113959 0.53679 0.835985 156 115 109
0.671181 -0.713976 -14.107 0.0358438 0.759816 0.64915 157 127 122
0.678321 -0.716863 -14.1054 -0.00915781 0.504538 0.863341 111 83 78
0.685839 -0.714076 -14.1086 -0.390859 0.335144 0.857268 131 87 74
0.828981 -0.723269 -13.8594 -0.39037 0.0211566 0.920415 210 146 117
0.826464 -0.723396 -13.8592 -0.229422 0.446217 0.865018 155 104 90
0.827718 -0.720815 -13.8606 -0.318618 0.0531225 0.946393 174 114 93
0.83151 -0.723015 -13.8608 -0.432993 0.0732778 0.898414 234 165 125
0.832865 -0.720413 -13.8617 0.0341924 0.776691 0.628953 233 165 123
0.83677 -0.720826 -13.8641 0.625504 -0.12488 0.770162 229 154 108
0.853872 -0.727081 -13.8754 0.691973 0.0659 0.71891 205 135 97
0.8564 -0.724851 -13.8779 0.386806 0.146372 0.910471 137 85 64
0.859143 -0.724859 -13.879 0.420016 0.0586786 0.905618 105 69 58
0.861575 -0.72499 -13.8791 0.137945 0.044469 0.989441 177 124 97
0.862971 -0.727315 -13.8794 0.68225 -0.0459969 0.729671 222 163 125
0.86575 -0.724894 -13.8786 0.691695 -0.0634032 0.719402 222 147 104
0.865289 -0.729748 -13.881 0.698105 -0.128837 0.704309 231 158 113
0.863566 -0.729182 -13.8785 0.553706 0.0172354 0.832534 230 168 127
0.885911 -0.730989 -13.8961 0.780452 0.164935 0.603069 202 148 115
0.894386 -0.730479 -13.9083 0.709385 0.337402 0.618816 166 158 137
0.901881 -0.734292 -13.914 0.34281 0.620176 0.705594 146 138 134
0.898562 -0.734317 -13.911 0.489318 0.621711 0.611591 173 164 147
0.908209 -0.736349 -13.9182 0.411046 0.675326 0.612354 167 153 141
0.908319 -0.732373 -13.9254 0.653277 0.353113 0.669732 167 156 137
