ply
format ascii 1.0
element vertex 708
property float x
property float y
property float z
property float nx
property float ny
property float nz
property uchar diffuse_red
property uchar diffuse_green
property uchar diffuse_blue
end_header
0.338459 -0.273043 -7.30306 -0.867022 0.202385 -0.455316 45 93 86
0.335128 -0.27375 -7.29812 -0.843926 0.217616 -0.490339 45 92 85
0.335113 -0.273728 -7.29809 -0.847925 0.210704 -0.486443 45 92 85
0.335775 -0.274983 -7.29949 -0.879035 0.165407 -0.447144 43 91 85
0.333113 -0.275473 -7.29487 -0.843863 0.176786 -0.506598 44 91 84
0.333731 -0.276612 -7.29645 -0.87535 0.129625 -0.465789 40 88 81
0.334045 -0.274512 -7.29661 -0.832434 0.207353 -0.513867 40 88 80
0.332025 -0.276268 -7.29341 -0.823708 0.194701 -0.532538 45 93 86
0.330301 -0.275838 -7.29037 -0.845933 0.190639 -0.498051 45 91 83
0.330924 -0.277043 -7.29191 -0.868574 0.151249 -0.471913 40 88 80
0.329781 -0.27785 -7.2905 -0.867985 0.139786 -0.476511 47 94 87
0.329049 -0.276542 -7.28909 -0.851041 0.167401 -0.497702 47 92 86
0.328096 -0.27745 -7.28737 -0.890239 0.124903 -0.438034 42 88 80
0.326114 -0.279638 -7.28423 -0.862661 0.150505 -0.48287 40 89 82
0.327118 -0.278399 -7.2857 -0.854195 0.144259 -0.49954 46 93 85
0.322175 -0.280806 -7.27818 -0.873149 0.149072 -0.4641 41 88 81
0.32321 -0.280026 -7.27957 -0.792113 0.143484 -0.59327 41 89 82
0.321228 -0.28161 -7.27667 -0.86273 0.162156 -0.478959 44 94 86
0.320695 -0.280547 -7.27511 -0.858256 0.196108 -0.474278 40 89 81
0.320237 -0.282417 -7.27514 -0.865704 0.133913 -0.482311 39 89 81
0.320238 -0.282421 -7.27517 -0.872542 0.139847 -0.468095 39 89 81
0.31971 -0.281314 -7.27363 -0.835016 0.222 -0.503453 41 90 82
0.319233 -0.28318 -7.27362 -0.855129 0.188396 -0.482971 45 95 87
0.318689 -0.282045 -7.27215 -0.847093 0.196631 -0.49373 44 94 86
0.317556 -0.282744 -7.27083 -0.840369 0.158285 -0.518388 39 89 81
0.318184 -0.283928 -7.2722 -0.811352 0.163458 -0.561239 44 95 87
0.31652 -0.283531 -7.2694 -0.83091 0.175074 -0.528146 45 95 87
0.311177 -0.288784 -7.25572 -0.212001 0.302787 -0.92918 51 92 81
0.310272 -0.287056 -7.25509 -0.361457 0.296901 -0.883854 78 85 73
0.305475 -0.290763 -7.24959 -0.802248 0.179935 -0.569229 165 114 100
0.300717 -0.292848 -7.24226 -0.861881 0.28779 -0.417538 169 121 105
0.26805 -0.308819 -7.18379 -0.762691 0.233778 -0.603034 113 109 108
0.269125 -0.307702 -7.1864 -0.8366 0.180499 -0.517224 84 81 81
0.269979 -0.309142 -7.18753 -0.852296 0.242131 -0.463642 87 59 61
0.264548 -0.312163 -7.17857 -0.798848 -0.0705666 -0.59738 96 54 59
0.266585 -0.30953 -7.18194 -0.678347 0.268667 -0.683859 139 127 126
0.267055 -0.312008 -7.18153 -0.761776 -0.199361 -0.616403 180 113 122
0.267368 -0.310809 -7.18397 -0.738869 0.292507 -0.607052 175 128 133
0.262215 -0.31127 -7.17528 -0.668023 0.211848 -0.713349 162 156 155
0.262525 -0.311784 -7.17494 -0.730916 0.235795 -0.640439 155 149 146
0.263329 -0.313174 -7.1764 -0.759273 0.199487 -0.619443 133 82 87
0.261845 -0.313811 -7.17524 -0.761074 0.209073 -0.614048 197 134 141
0.261748 -0.313685 -7.17537 -0.729156 0.261805 -0.632289 194 134 140
0.260853 -0.312042 -7.17351 -0.824789 -0.0266092 -0.564814 94 87 86
0.258582 -0.31264 -7.16962 -0.785339 0.116905 -0.607927 81 77 76
0.25826 -0.314818 -7.16961 -0.784036 0.098757 -0.612809 116 76 78
0.245079 -0.317972 -7.15297 0.171247 0.42199 -0.89028 145 98 83
0.244029 -0.320226 -7.1534 0.172908 0.429611 -0.886305 197 103 103
0.242571 -0.317906 -7.15365 0.326299 0.284155 -0.901546 168 101 87
0.494634 -0.218394 -7.49704 -0.556657 0.256818 -0.790049 108 92 93
0.492257 -0.217616 -7.49698 -0.119445 0.310663 -0.942985 187 183 180
0.479999 -0.221994 -7.48536 -0.967292 0.238513 -0.0863616 60 51 57
0.478951 -0.225488 -7.47343 -0.989331 0.0795038 -0.122079 64 50 51
0.459156 -0.226674 -7.46561 -0.900749 0.414839 -0.12869 155 118 107
0.454808 -0.228342 -7.46017 -0.788085 -0.382074 -0.48264 146 94 77
0.455138 -0.229451 -7.4602 -0.904002 -0.184563 -0.385639 146 91 73
0.451609 -0.230816 -7.45534 -0.901009 -0.217714 -0.375212 168 88 73
0.443075 -0.232875 -7.44367 -0.896687 0.429452 -0.107349 160 110 91
0.439495 -0.233794 -7.441 -0.908289 0.372186 -0.191018 158 116 99
0.439653 -0.233868 -7.44064 -0.870506 0.482147 -0.0987546 158 116 99
0.386441 -0.253731 -7.37496 -0.847625 0.165621 -0.504085 44 92 84
0.385485 -0.254508 -7.37353 -0.802678 0.125394 -0.583082 39 88 80
0.384903 -0.253675 -7.37244 -0.630054 0.153957 -0.761137 36 84 76
0.38357 -0.25637 -7.37097 -0.887389 0.1798 -0.424515 41 92 83
0.383875 -0.254417 -7.37107 -0.822872 0.170493 -0.542046 42 90 82
0.382831 -0.255152 -7.36968 -0.849201 0.115463 -0.515292 41 89 81
0.384448 -0.255292 -7.37219 -0.854826 0.145385 -0.498133 39 87 79
0.382485 -0.256994 -7.36973 -0.832336 0.134525 -0.537699 38 88 80
0.377105 -0.25934 -7.35891 -0.719442 0.234314 -0.653835 43 82 73
0.374986 -0.259409 -7.35555 -0.604048 0.0694697 -0.793915 173 110 90
0.375484 -0.259919 -7.35803 -0.852122 0.131532 -0.506545 103 85 77
0.37438 -0.260935 -7.35643 -0.761302 0.208403 -0.613993 142 97 84
0.366132 -0.264383 -7.34155 -0.730598 0.242859 -0.638158 171 121 105
0.362456 -0.265305 -7.33513 -0.679649 0.14004 -0.720046 148 110 96
0.363427 -0.266638 -7.33843 -0.672485 0.347454 -0.653483 164 104 93
0.354532 -0.269323 -7.32522 -0.887045 0.149547 -0.436791 167 116 98
0.352224 -0.271072 -7.31855 -0.532077 0.268026 -0.803154 164 116 102
0.339289 -0.275791 -7.30557 -0.803325 0.183428 -0.56659 41 94 88
0.337949 -0.274986 -7.30311 -0.84017 0.164835 -0.516667 46 95 89
0.338487 -0.274535 -7.30449 -0.862906 0.0182939 -0.505032 45 96 90
0.332663 -0.277421 -7.29493 -0.849848 0.165405 -0.5004 46 95 88
0.33266 -0.277427 -7.29493 -0.847705 0.167733 -0.503251 46 95 88
0.332318 -0.279449 -7.29485 -0.873646 0.0895542 -0.47825 45 96 89
0.331561 -0.278204 -7.29342 -0.842387 0.200703 -0.500103 42 91 85
0.331598 -0.278246 -7.29342 -0.850286 0.195399 -0.488706 42 91 85
0.330395 -0.27894 -7.29202 -0.874644 0.190438 -0.445793 42 91 84
0.330397 -0.278969 -7.29207 -0.876181 0.202103 -0.437562 42 91 84
0.329978 -0.281008 -7.29197 -0.875118 0.198561 -0.441296 44 94 88
0.329985 -0.281054 -7.29198 -0.871762 0.198789 -0.447787 44 94 88
0.331582 -0.27824 -7.29344 -0.851272 0.20273 -0.48398 42 91 85
0.325368 -0.283371 -7.28415 -0.852203 0.145857 -0.50247 38 89 82
0.327065 -0.280185 -7.28577 -0.864168 0.00960802 -0.503111 44 93 86
0.322427 -0.283796 -7.27969 -0.820975 0.176174 -0.543104 37 87 80
0.321834 -0.282717 -7.27813 -0.853215 0.175198 -0.491254 43 92 85
0.32089 -0.283522 -7.27662 -0.852299 0.154802 -0.499622 42 93 86
0.319873 -0.284312 -7.27519 -0.847779 0.176304 -0.500189 40 90 83
0.317193 -0.28464 -7.27084 -0.837782 0.132152 -0.529771 42 93 86
0.318771 -0.28505 -7.27367 -0.863931 0.163873 -0.476203 45 96 89
0.315048 -0.288202 -7.26792 -0.853381 0.0979843 -0.511996 39 90 83
0.31075 -0.292107 -7.25663 -0.198448 0.301286 -0.932655 62 95 80
0.306029 -0.293636 -7.2516 -0.865078 0.0460647 -0.499519 179 124 105
0.28706 -0.301141 -7.22382 -0.710666 0.304794 -0.634078 174 125 108
0.286617 -0.299979 -7.22197 -0.780298 0.274343 -0.562025 174 115 101
0.285898 -0.301907 -7.22176 -0.70769 0.354483 -0.61116 171 120 103
0.28294 -0.301141 -7.22334 -0.345559 -0.152039 -0.925998 180 122 104
0.272647 -0.303111 -7.21821 -0.439729 0.757887 -0.48192 184 74 78
0.262308 -0.314829 -7.17754 -0.771881 0.452733 -0.446354 217 115 127
0.261103 -0.315847 -7.17503 -0.751414 0.268028 -0.602941 215 113 124
0.242998 -0.322256 -7.15449 0.0115363 0.685082 -0.728374 231 114 120
0.242575 -0.324261 -7.15275 0.233289 0.701267 -0.673647 246 130 112
0.240146 -0.320702 -7.15514 0.0014867 0.945417 -0.325861 222 107 115
0.493384 -0.219644 -7.49772 -0.114228 0.274044 -0.954909 185 170 167
0.491166 -0.219624 -7.49716 -0.253821 0.301704 -0.918994 99 104 100
0.490256 -0.220711 -7.4949 -0.918288 0.317105 -0.237046 64 56 59
0.489007 -0.221578 -7.49306 -0.900002 0.340179 -0.272535 60 54 60
0.47862 -0.226473 -7.47741 -0.972615 0.00333303 -0.232396 75 66 66
0.47802 -0.228265 -7.47497 -0.951633 0.302466 -0.0539431 67 55 57
0.45652 -0.229817 -7.46262 -0.940758 -0.0702183 -0.33173 165 118 98
0.361418 -0.203136 -7.52125 0.465991 0.302234 -0.831569 101 108 103
0.386759 -0.256891 -7.37667 -0.939431 0.104466 -0.32643 41 92 84
0.385238 -0.256614 -7.37371 -0.877062 0.0833951 -0.473083 36 87 78
0.384947 -0.258496 -7.37383 -0.749718 0.217926 -0.624845 36 86 79
0.384377 -0.257519 -7.3722 -0.8355 0.156083 -0.526856 40 90 82
0.383148 -0.258178 -7.37106 -0.880812 0.193189 -0.43226 41 92 84
0.382112 -0.258911 -7.36968 -0.907185 0.11629 -0.404341 36 87 79
0.377184 -0.260826 -7.36079 -0.887298 0.140435 -0.439296 40 85 79
0.375194 -0.262141 -7.35761 -0.686495 0.244187 -0.684907 123 91 83
0.374551 -0.263021 -7.3558 -0.720492 0.257249 -0.643984 144 104 93
0.376677 -0.261709 -7.35862 -0.643318 0.261015 -0.719731 50 81 73
0.372341 -0.263095 -7.35227 -0.894179 0.0270625 -0.446891 162 125 118
0.372197 -0.265171 -7.35235 -0.508663 -0.058276 -0.858991 169 131 117
0.368902 -0.26542 -7.34651 -0.704303 0.496676 -0.507219 153 124 120
0.364994 -0.268213 -7.34179 -0.892822 0.212205 -0.397288 164 114 98
0.36179 -0.26924 -7.33671 -0.756919 0.129305 -0.640589 164 127 111
0.362977 -0.268535 -7.33787 -0.697482 0.414985 -0.584215 168 126 110
0.360795 -0.268194 -7.33529 -0.897579 -0.0569044 -0.437166 158 108 95
0.359611 -0.268774 -7.33405 -0.841107 0.0268458 -0.540203 157 104 93
0.35974 -0.270756 -7.3339 -0.904512 0.20288 -0.375097 165 125 110
0.35369 -0.272786 -7.32483 -0.882756 0.233212 -0.407866 171 128 110
0.346308 -0.273806 -7.31652 -0.307933 0.278128 -0.909847 43 93 85
0.339936 -0.276805 -7.30724 -0.791487 0.167086 -0.587903 42 94 87
0.341722 -0.277252 -7.30997 -0.877339 0.099252 -0.469494 40 90 84
0.339538 -0.278751 -7.30713 -0.836558 0.212403 -0.50503 39 91 85
0.334738 -0.281096 -7.30009 -0.860411 0.207248 -0.465556 44 95 89
0.334724 -0.281068 -7.3 -0.858079 0.201187 -0.472466 44 95 89
0.335194 -0.27923 -7.29972 -0.818735 0.171168 -0.548064 45 95 89
0.335855 -0.280347 -7.30153 -0.864133 0.181204 -0.469509 40 91 86
0.336175 -0.278302 -7.30167 -0.871637 0.0776704 -0.483958 38 88 82
0.336896 -0.279536 -7.30306 -0.808739 0.183033 -0.558963 41 92 86
0.333663 -0.281852 -7.29847 -0.826895 0.199786 -0.525672 39 90 84
0.334007 -0.279848 -7.29864 -0.800674 0.189106 -0.568471 41 91 85
0.328976 -0.281905 -7.29033 -0.821634 0.181202 -0.540447 45 95 89
0.328969 -0.28186 -7.29033 -0.822543 0.17598 -0.54079 45 95 89
0.328689 -0.284091 -7.29009 -0.858814 0.168455 -0.483799 43 94 88
0.328688 -0.284112 -7.2901 -0.861817 0.167219 -0.478862 43 94 88
0.324905 -0.285351 -7.28409 -0.797146 0.202727 -0.568735 40 92 85
0.327162 -0.283657 -7.28717 -0.876879 0.205507 -0.434568 45 95 89
0.322903 -0.287004 -7.2808 -0.838239 0.143123 -0.526185 38 88 82
0.323154 -0.285021 -7.28095 -0.820683 0.209795 -0.531474 39 90 82
0.323969 -0.286244 -7.28241 -0.832688 0.154751 -0.53168 43 94 87
0.323872 -0.286136 -7.28237 -0.812517 0.148519 -0.5637 43 94 87
0.324166 -0.284245 -7.28251 -0.865523 0.125558 -0.484877 42 93 86
0.321989 -0.285728 -7.27978 -0.872929 0.184875 -0.451459 40 90 83
0.321941 -0.285669 -7.2797 -0.798989 0.235533 -0.553299 42 93 87
0.321109 -0.286539 -7.27826 -0.869946 0.159754 -0.466554 44 97 90
0.318198 -0.289025 -7.27352 -0.858741 0.178067 -0.480475 44 97 89
0.319171 -0.288222 -7.27503 -0.872734 0.170109 -0.457601 45 97 90
0.317115 -0.289772 -7.27214 -0.856867 0.198163 -0.475931 41 94 86
0.316097 -0.290537 -7.27067 -0.854657 0.211462 -0.474179 46 99 91
0.315608 -0.289422 -7.2691 -0.850425 0.191125 -0.490152 42 94 86
0.315545 -0.289397 -7.26911 -0.833079 0.195468 -0.517466 41 91 84
0.310847 -0.293269 -7.25841 -0.721308 0.23602 -0.65116 50 91 82
0.311513 -0.2937 -7.25757 -0.329759 0.306319 -0.892988 48 94 84
0.286766 -0.304483 -7.22481 -0.763581 0.4401 -0.4725 168 102 86
0.287544 -0.302557 -7.22512 -0.699303 0.375782 -0.608081 156 104 89
0.277316 -0.302206 -7.22701 -0.564013 0.777234 -0.278923 184 44 45
0.259983 -0.317259 -7.18432 -0.444206 0.840618 -0.309908 246 134 145
0.2564 -0.319149 -7.17519 -0.387867 0.636087 -0.667047 248 135 140
0.253306 -0.316808 -7.18207 0.0550945 0.527315 -0.847882 247 133 136
0.241643 -0.324085 -7.15729 0.0320672 0.788795 -0.61382 250 137 131
0.240228 -0.323908 -7.15557 0.380453 0.671279 -0.636114 252 145 139
0.238265 -0.323609 -7.16096 -0.292819 0.574761 -0.764138 243 129 129
0.236855 -0.323476 -7.15884 0.0279332 0.680703 -0.732027 247 133 138
0.492101 -0.221501 -7.49806 -0.295514 0.277176 -0.914246 180 175 175
0.480533 -0.225673 -7.48379 -0.944968 0.319713 -0.0694277 66 61 69
0.479066 -0.22668 -7.4818 -0.914388 0.385329 -0.124163 198 189 186
0.47822 -0.227994 -7.47827 -0.936282 0.348882 -0.0407082 82 80 79
0.463883 -0.228996 -7.47164 -0.958787 0.267465 -0.0958635 165 89 77
0.451149 -0.233083 -7.45742 -0.887203 -0.211869 -0.409857 166 93 79
0.439526 -0.238111 -7.44136 -0.944713 0.187854 -0.268754 190 103 83
0.363494 -0.205806 -7.51991 0.461906 0.32552 -0.825033 130 119 108
0.38647 -0.258759 -7.37665 -0.849528 0.140941 -0.508367 42 94 87
0.385469 -0.259425 -7.37525 -0.765404 0.162351 -0.622735 39 90 83
0.38456 -0.260294 -7.3737 -0.748442 0.291894 -0.59551 38 88 82
0.38371 -0.259204 -7.37257 -0.771187 0.216387 -0.598705 41 93 85
0.382587 -0.260001 -7.37123 -0.867784 0.150197 -0.4737 39 92 84
0.382283 -0.261913 -7.3712 -0.810794 0.164684 -0.561687 37 90 82
0.378131 -0.263484 -7.35925 -0.450143 0.180983 -0.874423 39 87 80
0.377926 -0.263725 -7.36507 -0.933632 0.135576 -0.331588 40 93 85
0.378924 -0.265193 -7.35964 -0.520304 0.251827 -0.816007 39 85 81
0.375725 -0.263286 -7.35893 -0.69035 0.170634 -0.703065 95 86 78
0.372833 -0.265863 -7.35642 -0.538376 0.396681 -0.743502 169 109 96
0.372197 -0.266945 -7.35287 -0.714779 0.254709 -0.651317 170 120 107
0.37129 -0.265629 -7.35149 -0.862391 0.211601 -0.459899 165 130 119
0.370189 -0.266632 -7.34986 -0.854511 0.022711 -0.518937 163 123 115
0.369859 -0.268354 -7.35037 -0.842535 0.202788 -0.499011 160 134 119
0.36573 -0.268984 -7.344 -0.865068 -0.087262 -0.494007 175 116 102
0.361066 -0.27115 -7.33693 -0.873646 0.296946 -0.385443 159 98 90
0.362252 -0.270552 -7.33825 -0.746251 0.331033 -0.577517 158 102 93
0.363096 -0.269803 -7.34022 -0.832648 0.305484 -0.461926 164 108 96
0.360213 -0.271877 -7.33542 -0.816897 0.235844 -0.526362 167 123 112
0.358559 -0.271781 -7.33235 -0.83007 0.281486 -0.481403 160 113 98
0.3569 -0.274174 -7.33043 -0.889739 0.038267 -0.454863 173 129 111
0.354581 -0.273839 -7.32783 -0.897304 0.155135 -0.413253 185 121 106
0.35551 -0.27555 -7.32786 -0.812477 -0.0344283 -0.581976 167 112 96
0.353316 -0.275093 -7.32513 -0.890491 0.18718 -0.414716 170 128 114
0.342089 -0.28078 -7.31167 -0.882333 0.173034 -0.437662 40 91 85
0.342187 -0.278267 -7.31167 -0.877946 0.15468 -0.453085 40 90 84
0.340179 -0.2799 -7.30864 -0.803577 0.164851 -0.571916 43 96 90
0.341182 -0.27908 -7.31016 -0.836027 0.167861 -0.52238 43 94 87
0.337603 -0.280693 -7.30445 -0.879232 0.152445 -0.451344 47 100 94
0.337594 -0.280814 -7.3045 -0.879559 0.150809 -0.451256 47 100 94
0.338989 -0.280625 -7.30735 -0.862965 0.164356 -0.477786 39 91 85
0.335334 -0.282257 -7.30155 -0.865631 0.17163 -0.470348 44 96 90
0.336407 -0.281484 -7.30315 -0.815379 0.222573 -0.534433 40 92 86
0.337053 -0.282563 -7.3042 -0.835983 0.166895 -0.52276 46 99 93
0.33228 -0.284713 -7.29676 -0.852967 0.163878 -0.495573 45 98 92
0.333204 -0.283794 -7.29848 -0.831585 0.193378 -0.520645 41 92 86
0.334299 -0.28302 -7.29997 -0.79728 0.223525 -0.560697 43 95 89
0.329952 -0.286309 -7.29357 -0.883215 0.175037 -0.43508 43 96 90
0.33174 -0.28359 -7.29513 -0.811764 0.219046 -0.541349 43 95 89
0.33112 -0.285424 -7.29532 -0.849042 0.168081 -0.500876 41 92 86
0.329191 -0.285246 -7.29196 -0.815565 0.101067 -0.569772 45 97 91
0.328168 -0.286069 -7.29034 -0.856531 0.181954 -0.482957 40 92 86
0.325544 -0.286511 -7.28567 -0.858285 0.210804 -0.467877 37 88 82
0.326628 -0.285691 -7.28728 -0.872321 0.201194 -0.44562 41 92 86
0.32608 -0.287705 -7.28737 -0.896327 0.152375 -0.416388 38 91 85
0.325073 -0.288587 -7.2856 -0.836599 0.210722 -0.505666 38 90 84
0.325063 -0.288546 -7.28554 -0.838915 0.212464 -0.501079 38 90 84
0.323501 -0.288157 -7.28226 -0.849653 0.250352 -0.464127 41 93 86
0.32437 -0.287331 -7.28403 -0.824704 0.190324 -0.532579 43 95 89
0.32058 -0.288341 -7.27847 -0.852788 0.148331 -0.50075 44 97 90
0.317707 -0.290891 -7.27363 -0.85776 0.191083 -0.477217 44 97 90
0.318415 -0.292001 -7.27545 -0.876067 0.154291 -0.456838 46 99 93
0.316704 -0.291695 -7.27211 -0.86184 0.19023 -0.470154 44 97 90
0.315066 -0.291288 -7.26919 -0.854798 0.183581 -0.485405 39 92 84
0.310624 -0.29625 -7.26015 -0.879343 0.173859 -0.443316 47 92 84
0.307913 -0.297318 -7.25678 -0.658229 0.257902 -0.707263 185 115 94
0.307001 -0.298252 -7.25493 -0.84338 0.157614 -0.513681 186 120 97
0.302816 -0.300011 -7.24832 -0.840535 0.238505 -0.486432 175 120 102
0.287651 -0.306173 -7.22601 -0.843351 0.187019 -0.503768 179 109 88
0.286837 -0.30799 -7.22614 -0.803666 0.327018 -0.497173 161 102 80
0.284603 -0.30618 -7.22556 -0.482651 0.232019 -0.844521 146 94 75
0.276227 -0.306111 -7.22739 0.684556 0.327855 -0.651072 199 31 36
0.272275 -0.303309 -7.22838 -0.682432 0.653114 -0.328222 230 64 65
0.270701 -0.303512 -7.22722 -0.670004 0.410267 -0.618689 211 64 70
0.257562 -0.31736 -7.18858 -0.429392 0.82549 -0.366318 201 91 97
0.257061 -0.31822 -7.19135 -0.470236 0.798768 -0.375297 136 75 57
0.25444 -0.316579 -7.19525 -0.27244 0.879606 -0.38996 125 67 52
0.252517 -0.316297 -7.19589 -0.247772 0.900234 -0.358033 124 68 52
0.243899 -0.311345 -7.20045 -0.384243 0.626449 -0.678173 200 99 99
0.480465 -0.227302 -7.48768 -0.553013 0.833127 -0.00873938 213 199 188
0.479512 -0.228513 -7.48364 -0.904709 0.420247 -0.0699573 220 200 191
0.47462 -0.230326 -7.4804 -0.693336 0.720614 -0.0008322 174 138 121
0.463223 -0.231842 -7.47233 -0.932323 0.34609 -0.104861 179 120 97
0.45954 -0.233182 -7.46758 -0.933562 -0.198906 -0.298158 187 118 92
0.450788 -0.237205 -7.45689 -0.903791 0.390746 -0.174583 145 92 74
0.44938 -0.238155 -7.45494 -0.923083 0.338665 -0.182277 173 107 88
0.437095 -0.241527 -7.44005 -0.922278 0.307891 -0.233681 165 106 87
0.38539 -0.26226 -7.37676 -0.825699 0.196579 -0.528751 41 93 86
0.385962 -0.260511 -7.37664 -0.786788 0.23373 -0.571257 41 94 87
0.385063 -0.261277 -7.37515 -0.763428 0.175794 -0.62151 37 88 81
0.383451 -0.263819 -7.3738 -0.781457 0.204987 -0.589326 41 95 88
0.384173 -0.262177 -7.37351 -0.865856 0.146672 -0.47831 41 93 86
0.380955 -0.264135 -7.36948 -0.834956 0.195151 -0.514553 42 94 87
0.379803 -0.264803 -7.36821 -0.863675 0.18098 -0.470438 40 92 85
0.372007 -0.269087 -7.35187 -0.719662 0.254939 -0.645828 162 122 105
0.368248 -0.270948 -7.34863 -0.89232 -0.0350915 -0.450037 158 130 128
0.36409 -0.273466 -7.34296 -0.777013 0.271886 -0.56774 167 136 124
0.362089 -0.273908 -7.33896 -0.677362 0.281772 -0.679548 163 104 92
0.357402 -0.27546 -7.33254 -0.791726 0.31457 -0.523656 166 104 92
0.358417 -0.274877 -7.33396 -0.776669 0.24673 -0.579577 169 122 109
0.357842 -0.276621 -7.33388 -0.842137 0.226478 -0.489401 171 133 118
0.354307 -0.27644 -7.32649 -0.915544 0.170938 -0.364087 164 109 92
0.354327 -0.276526 -7.32641 -0.913688 0.191355 -0.358549 164 108 91
0.35583 -0.277165 -7.33 -0.829876 0.240878 -0.503274 165 107 97
0.353887 -0.276386 -7.32655 -0.885007 0.213345 -0.41382 165 111 94
0.353142 -0.278287 -7.32595 -0.888997 0.0959531 -0.447746 171 115 103
0.345888 -0.27834 -7.31968 0.0691914 0.295172 -0.952936 44 91 84
0.339509 -0.284308 -7.30899 -0.836091 0.131551 -0.532585 42 95 89
0.340582 -0.283496 -7.31045 -0.863479 0.110213 -0.492196 45 99 92
0.341058 -0.281622 -7.31016 -0.832362 0.19489 -0.518836 45 97 91
0.341585 -0.282618 -7.31194 -0.847894 0.125283 -0.51515 41 93 87
0.337486 -0.285636 -7.3058 -0.875824 0.13565 -0.463175 44 99 92
0.337678 -0.283579 -7.30583 -0.863049 0.142376 -0.484639 45 98 92
0.33845 -0.284741 -7.30739 -0.872098 0.130751 -0.471539 42 95 89
0.334946 -0.284211 -7.30136 -0.804998 0.184598 -0.563828 43 97 91
0.335614 -0.285351 -7.30282 -0.863043 0.0897658 -0.497091 42 94 88
0.33455 -0.286143 -7.30131 -0.867098 0.071629 -0.492962 43 97 90
0.336635 -0.284436 -7.30433 -0.803273 0.132551 -0.580674 39 92 86
0.332696 -0.285728 -7.29865 -0.811679 0.148479 -0.564918 43 95 89
0.33383 -0.284926 -7.30007 -0.805237 0.144263 -0.575137 40 93 87
0.333557 -0.286931 -7.29995 -0.822151 0.139012 -0.552036 39 92 86
0.332464 -0.287759 -7.29847 -0.823435 0.152765 -0.54646 43 97 90
0.332476 -0.287764 -7.29852 -0.811429 0.167667 -0.559884 43 97 90
0.330623 -0.28737 -7.29546 -0.894643 0.0967209 -0.436186 40 92 86
0.331641 -0.286566 -7.29711 -0.863864 0.0991411 -0.493872 43 96 90
0.328939 -0.287262 -7.29197 -0.807084 0.13567 -0.574638 43 97 91
0.328635 -0.289272 -7.29191 -0.849249 0.146626 -0.507225 42 96 89
0.327808 -0.288008 -7.29056 -0.803953 0.239239 -0.544448 39 92 86
0.327389 -0.290049 -7.29027 -0.757936 0.163008 -0.631634 42 94 88
0.324618 -0.29064 -7.2855 -0.8023 0.221338 -0.554369 41 94 87
0.326662 -0.288957 -7.28872 -0.869186 0.179914 -0.460594 41 93 87
0.32067 -0.293631 -7.27945 -0.765575 0.157299 -0.62382 41 94 88
0.321781 -0.292752 -7.28108 -0.847647 0.131873 -0.513911 41 94 87
0.315961 -0.296212 -7.27194 -0.877808 0.143493 -0.457016 45 100 93
0.3164 -0.294201 -7.27206 -0.851678 0.179932 -0.492209 47 103 96
0.315096 -0.294918 -7.27079 -0.886375 0.165838 -0.432248 44 101 93
0.311218 -0.29972 -7.26107 -0.793905 0.2184 -0.567465 43 94 88
0.307902 -0.301 -7.25756 -0.791086 0.242016 -0.561793 187 134 115
0.308266 -0.300532 -7.25798 -0.804485 0.209787 -0.555692 184 133 117
0.307507 -0.299272 -7.25673 -0.809229 0.184103 -0.557902 186 131 110
0.30654 -0.300162 -7.25514 -0.862344 0.211859 -0.459868 183 121 102
0.303296 -0.301178 -7.25 -0.848416 0.277553 -0.450726 187 129 112
0.302268 -0.302048 -7.24836 -0.848806 0.247898 -0.466985 175 124 108
0.301085 -0.302738 -7.24704 -0.794509 0.300471 -0.527705 162 111 96
0.301654 -0.304053 -7.24838 -0.755817 0.265142 -0.598699 173 132 112
0.28628 -0.310475 -7.22515 -0.596449 0.239164 -0.766191 148 98 76
0.285495 -0.308437 -7.22505 -0.479225 0.302074 -0.824072 135 85 65
0.281959 -0.309631 -7.22918 -0.274469 0.449087 -0.850287 123 82 76
0.277222 -0.307713 -7.22856 -0.0608506 -0.0760709 -0.995244 179 45 45
0.275926 -0.308289 -7.23171 -0.596717 0.289335 -0.748474 198 46 47
0.272157 -0.306531 -7.23017 -0.780112 -0.00526322 -0.625618 219 54 62
0.273505 -0.307822 -7.23108 -0.154556 -0.292516 -0.943688 241 62 62
0.272126 -0.308626 -7.23031 -0.691653 -0.176819 -0.700251 233 60 63
0.266828 -0.309501 -7.22683 0.644765 0.445002 -0.621491 128 74 69
0.255691 -0.307288 -7.2284 0.764332 0.43578 -0.475282 168 99 81
0.483984 -0.226842 -7.49559 -0.39603 0.916284 -0.0598699 152 106 89
0.483984 -0.226842 -7.49559 -0.39603 0.916284 -0.0598699 152 106 89
0.476699 -0.228912 -7.4888 -0.570446 0.821284 -0.00913763 147 110 93
0.475201 -0.229948 -7.48559 -0.569012 0.822287 -0.00838435 149 110 92
0.472924 -0.23056 -7.48408 -0.710871 0.703322 0.00114575 160 103 84
0.467938 -0.233072 -7.47933 -0.959097 0.270415 -0.0837203 127 75 67
0.462911 -0.235607 -7.47068 -0.914955 0.399466 -0.057317 182 112 93
0.45665 -0.237642 -7.46321 -0.891006 0.450086 -0.0594125 181 117 96
0.451674 -0.239426 -7.4579 -0.954521 0.057826 -0.292482 177 122 101
0.4416 -0.242683 -7.44614 -0.919128 0.328607 -0.217303 193 109 82
0.364328 -0.210088 -7.52026 0.354145 0.279574 -0.892423 139 125 112
0.385016 -0.264141 -7.37677 -0.873074 0.164751 -0.458911 38 90 84
0.38611 -0.263407 -7.37812 -0.827881 0.25419 -0.5 41 96 88
0.383271 -0.265856 -7.37368 -0.906151 0.128657 -0.402912 41 95 88
0.384117 -0.264969 -7.37526 -0.909113 0.16248 -0.383553 39 92 85
0.382067 -0.266523 -7.37249 -0.746585 0.177399 -0.641202 36 90 83
0.380953 -0.267226 -7.37118 -0.846994 0.161756 -0.506395 40 93 87
0.380341 -0.266147 -7.36971 -0.903459 0.125055 -0.410028 42 94 87
0.380034 -0.268054 -7.36965 -0.88591 0.152755 -0.437983 42 94 87
0.376766 -0.270037 -7.36347 -0.815776 0.207888 -0.539715 48 88 81
0.370903 -0.272961 -7.35289 -0.922568 0.207819 -0.325084 167 110 94
0.369767 -0.273722 -7.3515 -0.810257 0.269661 -0.520352 168 102 92
0.361801 -0.275633 -7.33959 -0.861804 -0.0666584 -0.502842 175 125 104
0.361469 -0.27755 -7.33941 -0.888943 0.240477 -0.38981 172 105 87
0.362872 -0.274738 -7.3407 -0.831989 0.263074 -0.488454 169 126 111
0.362663 -0.276511 -7.34121 -0.884147 -0.0722331 -0.461592 172 119 104
0.360792 -0.276327 -7.33822 -0.869862 0.21776 -0.44263 176 122 103
0.360373 -0.278426 -7.33783 -0.89675 0.117254 -0.426721 178 124 108
0.354113 -0.279915 -7.32851 -0.871707 0.118349 -0.475521 170 125 114
0.341961 -0.285877 -7.31342 -0.862389 0.131253 -0.488935 40 92 86
0.34236 -0.283955 -7.31329 -0.853654 0.162423 -0.494867 40 93 86
0.343011 -0.285051 -7.31485 -0.830248 0.119015 -0.544541 44 97 91
0.343956 -0.284152 -7.31641 -0.896315 0.0642875 -0.438734 41 94 88
0.340185 -0.285391 -7.31051 -0.823619 0.150725 -0.546749 44 99 92
0.340932 -0.286702 -7.31193 -0.839502 0.151047 -0.52194 44 98 91
0.33708 -0.287571 -7.30594 -0.839199 0.15969 -0.519851 44 98 91
0.33905 -0.28617 -7.30915 -0.825032 0.142868 -0.546727 41 93 87
0.336344 -0.286441 -7.30444 -0.850098 0.125525 -0.511445 37 90 84
0.335302 -0.287342 -7.30296 -0.89389 0.154799 -0.420711 44 96 90
0.335 -0.289458 -7.30288 -0.872343 0.192146 -0.449552 44 97 91
0.332119 -0.289764 -7.29865 -0.858511 0.10829 -0.501231 43 98 91
0.334288 -0.288048 -7.30146 -0.801988 0.177392 -0.570392 42 96 90
0.334278 -0.288162 -7.30145 -0.8044 0.167933 -0.56986 42 96 90
0.330359 -0.289506 -7.29551 -0.856576 0.143486 -0.49567 40 93 87
0.331419 -0.288651 -7.29709 -0.852883 0.131204 -0.505348 41 95 89
0.331411 -0.288631 -7.29706 -0.85239 0.127842 -0.507038 41 95 89
0.331063 -0.290674 -7.29707 -0.847083 0.142767 -0.511926 40 94 88
0.330043 -0.29157 -7.29547 -0.871401 0.137963 -0.470772 41 96 89
0.328057 -0.291761 -7.2913 -0.757215 0.100805 -0.64534 39 93 86
0.329315 -0.290365 -7.29392 -0.878607 0.150243 -0.453296 43 98 91
0.32931 -0.290382 -7.29395 -0.87499 0.143509 -0.462383 43 98 91
0.325634 -0.293373 -7.28772 -0.793638 0.252269 -0.553623 38 91 85
0.326761 -0.292514 -7.28967 -0.692507 0.20848 -0.69063 41 94 87
0.325146 -0.291781 -7.28717 -0.851564 0.198885 -0.48506 38 91 85
0.32297 -0.293556 -7.28373 -0.893016 0.109937 -0.43639 40 94 88
0.323464 -0.294829 -7.28504 -0.879023 0.233517 -0.415679 44 98 92
0.316516 -0.297357 -7.27367 -0.883992 0.130184 -0.449011 45 99 92
0.315545 -0.298187 -7.27217 -0.867758 0.187645 -0.460201 45 99 92
0.313253 -0.299446 -7.26983 -0.872167 0.264267 -0.41169 45 100 92
0.312545 -0.30036 -7.26791 -0.833395 0.125967 -0.538132 43 98 90
0.310706 -0.301616 -7.26106 -0.790726 0.17765 -0.585827 49 94 86
0.307321 -0.302861 -7.25757 -0.847046 0.201044 -0.492031 186 119 101
0.302288 -0.305313 -7.24974 -0.819833 0.222391 -0.527652 182 115 100
0.30116 -0.306027 -7.2481 -0.818236 0.21746 -0.532166 188 126 109
0.286675 -0.31137 -7.22713 -0.686658 0.226555 -0.690777 150 84 65
0.286649 -0.314166 -7.22699 -0.404725 0.0899287 -0.910006 166 103 82
0.279912 -0.312018 -7.23167 -0.540932 0.121721 -0.832212 142 88 76
0.276929 -0.31048 -7.2312 -0.596346 0.30723 -0.741607 170 56 52
0.275102 -0.310484 -7.23135 -0.602138 0.171709 -0.779709 216 48 48
0.271703 -0.309218 -7.23212 -0.246611 0.214917 -0.944983 245 70 71
0.269518 -0.312213 -7.22724 -0.0756466 0.6589 -0.748417 245 76 89
0.265974 -0.312917 -7.22616 -0.129056 0.437295 -0.89001 164 53 58
0.263865 -0.312623 -7.22665 -0.0850255 0.389341 -0.917161 174 60 61
0.255541 -0.310761 -7.22943 0.614215 0.525077 -0.589095 192 65 63
0.251752 -0.308876 -7.23432 0.0707183 -0.18319 -0.980531 230 90 89
0.253329 -0.307004 -7.23376 0.307446 -0.281225 -0.90906 191 112 98
0.481768 -0.228255 -7.50025 -0.89379 -0.310412 -0.323704 178 112 86
0.480625 -0.230003 -7.49717 -0.947376 -0.210992 -0.240752 185 111 91
0.476476 -0.230945 -7.49363 -0.933093 -0.240033 -0.267811 157 85 67
0.473905 -0.231098 -7.48852 -0.890044 0.455674 -0.0135013 162 107 87
0.472176 -0.231835 -7.48712 -0.884701 0.465903 -0.0154358 163 88 66
0.468007 -0.234417 -7.4811 -0.925444 0.376252 -0.0445967 135 71 61
0.464929 -0.236299 -7.47448 -0.958464 0.191461 -0.211399 161 110 97
0.463513 -0.237834 -7.47161 -0.925361 0.374498 -0.0588095 167 100 82
0.455226 -0.240234 -7.46291 -0.886646 0.458651 -0.0591488 181 104 84
0.450743 -0.242279 -7.45804 -0.899217 0.42039 -0.121166 174 135 118
0.448841 -0.243074 -7.45639 -0.90229 0.395077 -0.172588 163 118 105
0.436151 -0.248862 -7.43907 -0.940544 -0.016868 -0.339254 167 106 81
0.363297 -0.211768 -7.52195 0.459558 0.256533 -0.850293 128 119 110
0.384762 -0.266265 -7.37674 -0.712432 0.230235 -0.662897 37 90 83
0.385715 -0.265564 -7.37825 -0.887952 0.189215 -0.419213 41 95 88
0.386238 -0.266675 -7.37975 -0.918997 0.238562 -0.313898 41 96 89
0.382433 -0.269455 -7.37369 -0.703531 0.231195 -0.672007 38 93 86
0.382621 -0.267572 -7.37401 -0.847778 0.164325 -0.504252 40 95 88
0.383186 -0.268691 -7.3753 -0.699669 0.187195 -0.689508 41 96 89
0.384187 -0.267974 -7.37667 -0.692313 0.263853 -0.671628 39 92 86
0.380582 -0.269097 -7.37119 -0.884033 0.161893 -0.438493 41 95 88
0.377862 -0.271595 -7.36384 -0.768839 0.155015 -0.620368 42 92 84
0.375474 -0.272722 -7.36171 -0.716603 0.332694 -0.613022 123 106 92
0.375471 -0.272988 -7.36157 -0.710624 0.284119 -0.643654 127 105 92
0.374536 -0.273544 -7.36002 -0.693145 0.231689 -0.682547 175 120 101
0.37236 -0.275069 -7.35643 -0.718468 0.209819 -0.663159 168 130 114
0.370212 -0.274874 -7.35304 -0.908414 0.159924 -0.386274 168 124 116
0.366434 -0.276033 -7.34695 -0.89507 0.194092 -0.401469 161 123 111
0.360937 -0.279388 -7.33945 -0.864929 0.104313 -0.490935 175 130 112
0.354772 -0.281126 -7.33012 -0.734993 0.279763 -0.617671 156 136 127
0.355367 -0.282399 -7.33148 -0.784208 0.21102 -0.583514 156 133 129
0.352596 -0.283053 -7.32662 -0.893076 0.0697847 -0.44446 158 129 122
0.352702 -0.284141 -7.32446 -0.570481 0.214166 -0.792896 155 124 122
0.342705 -0.287119 -7.31497 -0.857186 0.161524 -0.489022 44 97 90
0.342761 -0.287061 -7.31479 -0.878668 0.110561 -0.464455 44 97 90
0.343461 -0.28824 -7.31631 -0.788108 0.147214 -0.597674 48 99 93
0.339891 -0.287462 -7.31042 -0.797292 0.205837 -0.567412 44 98 91
0.341659 -0.287845 -7.31336 -0.89827 0.10847 -0.425847 41 94 87
0.33761 -0.288996 -7.30769 -0.856615 0.151587 -0.493186 45 99 92
0.338729 -0.28821 -7.30909 -0.877575 0.160094 -0.451921 41 94 88
0.336538 -0.289745 -7.30619 -0.822243 0.216687 -0.526274 40 94 88
0.33553 -0.290618 -7.30452 -0.873698 0.194102 -0.446068 41 94 88
0.335398 -0.290533 -7.30481 -0.79006 0.245787 -0.561599 41 94 88
0.333789 -0.290164 -7.30156 -0.831244 0.212849 -0.513546 41 95 88
0.332919 -0.29093 -7.30016 -0.863952 0.204356 -0.460245 42 96 89
0.327461 -0.293458 -7.29194 -0.797691 0.177811 -0.576258 40 94 87
0.328102 -0.294576 -7.29353 -0.807479 0.222355 -0.546385 40 95 88
0.325021 -0.295327 -7.2883 -0.813391 0.425952 -0.396182 39 92 86
0.321872 -0.297437 -7.28337 -0.857789 0.346208 -0.379918 42 95 89
0.31964 -0.298682 -7.28079 -0.883252 0.271694 -0.382163 43 96 90
0.31841 -0.29914 -7.27843 -0.853576 0.291485 -0.431793 47 101 95
0.313882 -0.30083 -7.27095 -0.876693 0.254697 -0.408091 46 99 92
0.306829 -0.304811 -7.25763 -0.856543 0.220635 -0.466533 191 131 108
0.300775 -0.308105 -7.24784 -0.848672 0.244528 -0.469 177 132 113
0.301946 -0.307422 -7.24939 -0.7025 0.322301 -0.63452 172 127 108
0.284068 -0.315269 -7.22859 -0.206701 0.118826 -0.971162 149 98 77
0.281364 -0.313816 -7.23156 -0.336384 -0.104579 -0.9359 148 94 80
0.27886 -0.314354 -7.23183 -0.57325 0.132 -0.808678 137 85 70
0.277125 -0.31416 -7.23193 -0.664293 0.239613 -0.708026 168 59 51
0.278041 -0.312381 -7.23136 -0.688879 0.142983 -0.710635 149 71 59
0.276369 -0.312856 -7.23026 -0.671724 0.240504 -0.700675 209 41 43
0.275549 -0.314641 -7.23084 0.681107 0.205499 -0.702754 214 36 40
0.274577 -0.312939 -7.23019 0.506238 -0.108531 -0.855538 228 46 48
0.270381 -0.313667 -7.22868 0.232343 0.287142 -0.929283 248 77 83
0.269648 -0.315778 -7.22878 0.340759 0.13499 -0.930409 247 79 88
0.266999 -0.314675 -7.22678 0.0786661 0.327078 -0.941717 158 64 64
0.264901 -0.314352 -7.22732 -0.155236 0.124768 -0.979967 113 63 57
0.262847 -0.313646 -7.22793 0.103671 0.315449 -0.943263 125 66 58
0.260511 -0.313298 -7.22912 0.132311 0.387725 -0.91223 113 59 51
0.258343 -0.313443 -7.22911 0.581232 0.222615 -0.782695 113 62 58
0.255461 -0.312655 -7.231 0.703485 0.138601 -0.697065 115 54 47
0.253076 -0.311202 -7.23374 0.136103 -0.0578361 -0.989005 175 64 57
0.245408 -0.30734 -7.24376 0.243727 -0.152693 -0.957748 241 85 87
0.484559 -0.228321 -7.50382 -0.86185 -0.172429 -0.476952 198 120 99
0.480845 -0.22982 -7.49844 -0.932837 -0.248372 -0.261013 171 87 70
0.479403 -0.231549 -7.49586 -0.882882 -0.295997 -0.364563 165 104 89
0.475294 -0.232893 -7.49066 -0.788568 -0.409796 -0.458506 137 81 65
0.472356 -0.235285 -7.48645 -0.746889 0.293611 -0.596614 126 77 65
0.46932 -0.235294 -7.48493 -0.91208 0.408747 -0.0321958 133 74 63
0.363013 -0.212647 -7.5227 0.465109 0.348599 -0.813728 126 118 109
0.363013 -0.212647 -7.5227 0.465109 0.348599 -0.813728 126 118 109
0.38706 -0.268921 -7.38244 -0.89862 0.00642009 -0.438682 37 90 84
0.385595 -0.26857 -7.37986 -0.790697 0.321161 -0.521204 41 97 90
0.382837 -0.270518 -7.3751 -0.702728 0.193364 -0.684678 41 96 89
0.381854 -0.271169 -7.37368 -0.699866 0.239645 -0.672873 36 91 84
0.375896 -0.273932 -7.36305 -0.810445 0.303689 -0.500952 71 87 77
0.374893 -0.274485 -7.36153 -0.658565 0.323128 -0.679618 145 94 83
0.374805 -0.274704 -7.36156 -0.612573 0.335492 -0.715681 148 96 85
0.375532 -0.275847 -7.36252 -0.713695 0.122133 -0.689726 114 104 92
0.366483 -0.27963 -7.34827 -0.806555 0.126767 -0.577407 169 146 135
0.365519 -0.278407 -7.34704 -0.813872 0.162257 -0.557929 153 128 122
0.361739 -0.280552 -7.34074 -0.892041 0.136637 -0.430805 170 125 111
0.361324 -0.282399 -7.34087 -0.885005 0.052685 -0.462591 170 132 117
0.360696 -0.281275 -7.33947 -0.891552 0.147818 -0.428118 166 118 105
0.359637 -0.28222 -7.33795 -0.836262 0.224933 -0.500071 170 116 100
0.359952 -0.283181 -7.33966 -0.851741 0.167514 -0.496464 173 133 117
0.359009 -0.283921 -7.33816 -0.862915 0.236419 -0.446635 171 117 103
0.353951 -0.28546 -7.3277 -0.915501 0.108372 -0.387445 154 130 125
0.352784 -0.285424 -7.32749 -0.81853 0.26028 -0.512117 158 131 129
0.353283 -0.286778 -7.32887 -0.886862 0.201695 -0.415685 155 120 108
0.342427 -0.28905 -7.31483 -0.77987 0.163324 -0.604259 46 97 91
0.343459 -0.290789 -7.31694 -0.871434 0.278555 -0.403745 49 99 93
0.341387 -0.2899 -7.31339 -0.893694 0.0951089 -0.438481 47 99 92
0.340303 -0.290739 -7.312 -0.84862 0.0772677 -0.52333 50 103 97
0.339138 -0.291564 -7.31071 -0.776189 0.196286 -0.599168 50 102 96
0.338055 -0.292318 -7.30924 -0.795531 0.162432 -0.583735 52 104 98
0.335049 -0.292607 -7.30456 -0.896512 0.249536 -0.366058 49 101 96
0.3349 -0.292759 -7.30454 -0.796632 0.154672 -0.58434 50 102 96
0.33369 -0.29342 -7.30316 -0.848843 0.135765 -0.510914 45 97 91
0.330453 -0.294944 -7.29699 -0.841393 0.180965 -0.509224 40 95 89
0.32937 -0.295795 -7.29554 -0.864969 0.250439 -0.434868 44 99 92
0.329812 -0.29701 -7.2972 -0.829446 0.256646 -0.496138 43 98 92
0.331017 -0.296362 -7.29859 -0.816248 0.160272 -0.555024 42 97 91
0.33146 -0.294086 -7.29861 -0.847705 0.206809 -0.488494 43 97 91
0.32859 -0.297708 -7.29574 -0.836241 0.220264 -0.50218 46 100 93
0.326281 -0.297684 -7.29122 -0.864478 0.0347804 -0.501466 41 95 89
0.321825 -0.300877 -7.28478 -0.825039 0.133659 -0.549041 42 94 88
0.324063 -0.299457 -7.28811 -0.872161 0.18235 -0.453964 46 100 94
0.323032 -0.30041 -7.28643 -0.848661 0.119142 -0.515345 44 99 92
0.319964 -0.300115 -7.28209 -0.789716 0.322829 -0.521661 50 102 96
0.321167 -0.299564 -7.28349 -0.756699 0.279911 -0.590811 49 102 95
0.32057 -0.301475 -7.28335 -0.798398 0.242607 -0.551093 45 97 91
0.318802 -0.300493 -7.28043 -0.690358 0.489209 -0.532992 61 112 106
0.318199 -0.302446 -7.2798 -0.860323 0.123437 -0.494578 50 101 95
0.317884 -0.301012 -7.27849 -0.860941 0.213867 -0.461565 52 105 99
0.316537 -0.30442 -7.27652 -0.86674 0.0222084 -0.498267 47 100 94
0.310191 -0.307423 -7.26346 -0.683604 0.322533 -0.654719 49 82 76
0.30317 -0.311413 -7.2537 -0.856038 0.180196 -0.484488 187 127 106
0.286654 -0.317962 -7.22979 -0.654544 0.292025 -0.697347 161 113 92
0.282647 -0.318364 -7.23222 0.0475025 0.244937 -0.968374 145 93 72
0.280501 -0.318081 -7.23333 -0.377611 0.303301 -0.874882 126 72 55
0.279694 -0.315994 -7.23352 -0.411416 0.276491 -0.868498 128 77 63
0.279722 -0.316134 -7.23303 -0.552826 0.237059 -0.798866 129 79 64
0.28154 -0.316036 -7.23428 -0.314841 0.146788 -0.937725 142 91 73
0.27671 -0.317816 -7.23243 -0.389553 0.33388 -0.858354 180 46 41
0.278632 -0.318068 -7.23257 -0.365363 0.34403 -0.864958 124 62 47
0.278534 -0.317741 -7.23346 -0.53304 0.294429 -0.793209 124 63 48
0.277819 -0.315941 -7.23289 -0.66848 0.224335 -0.70909 142 65 53
0.278121 -0.316199 -7.2318 -0.33292 0.289514 -0.897411 141 64 52
0.277822 -0.315928 -7.23291 -0.691186 0.24286 -0.680648 141 65 53
0.274826 -0.31775 -7.2318 -0.368748 0.364377 -0.855134 232 51 52
0.273903 -0.315534 -7.2323 0.67857 0.225594 -0.699035 232 52 53
0.276028 -0.316155 -7.2315 -0.38424 0.32702 -0.863376 211 44 45
0.276128 -0.316405 -7.23089 -0.170563 0.324106 -0.930518 216 43 45
0.272699 -0.317092 -7.23266 0.134229 0.426585 -0.894432 244 69 70
0.268617 -0.318212 -7.22826 0.486848 0.0964967 -0.86814 235 77 90
0.268185 -0.316421 -7.22761 0.112834 0.3171 -0.941656 214 68 79
0.266816 -0.318394 -7.22775 -0.158862 0.228907 -0.960398 117 40 42
0.265859 -0.3164 -7.22777 -0.160119 0.206762 -0.9652 94 45 44
0.262755 -0.317463 -7.2289 -0.181993 0.0523782 -0.981904 60 34 31
0.263827 -0.315865 -7.22824 -0.158695 0.128992 -0.978865 83 48 47
0.261714 -0.31541 -7.22906 0.105349 0.133983 -0.985368 84 49 47
0.25452 -0.313351 -7.23348 0.139472 0.373057 -0.917266 100 44 41
0.255994 -0.315546 -7.23314 0.553147 0.402157 -0.729587 52 29 27
0.251519 -0.312982 -7.2348 0.161472 -0.138297 -0.977139 187 66 68
0.249799 -0.314794 -7.23591 0.168701 -0.157334 -0.973029 61 30 26
0.24753 -0.311042 -7.23991 0.198073 -0.176183 -0.964224 159 56 57
0.243825 -0.310787 -7.24091 0.535777 -0.0507214 -0.842835 103 39 40
0.485276 -0.23089 -7.50353 -0.883717 -0.276631 -0.377518 166 77 59
0.484463 -0.232331 -7.50181 -0.887733 -0.323226 -0.327804 195 92 72
0.483841 -0.233471 -7.50033 -0.751898 -0.42067 -0.507629 206 100 82
0.481975 -0.232738 -7.49745 -0.777182 -0.422151 -0.466666 152 81 57
0.482354 -0.233194 -7.49778 -0.831829 -0.37831 -0.406131 168 93 67
0.481571 -0.234897 -7.49578 -0.767576 -0.470025 -0.435779 197 93 80
0.469937 -0.237408 -7.48578 -0.932394 0.35831 -0.0474841 179 82 77
0.443273 -0.249236 -7.45247 -0.847404 0.526917 -0.0653099 214 68 66
0.362197 -0.214732 -7.5242 0.447299 0.539369 -0.713445 114 115 107
0.385293 -0.270478 -7.37943 -0.908799 0.217008 -0.35636 42 97 90
0.384801 -0.27239 -7.37949 -0.931391 0.214746 -0.293931 44 97 90
0.386038 -0.271757 -7.38117 -0.883395 0.277772 -0.377434 47 101 93
0.382599 -0.271927 -7.37534 -0.816889 0.0584894 -0.573822 42 96 89
0.383229 -0.271497 -7.37659 -0.677505 0.129829 -0.723969 42 97 90
0.383904 -0.273633 -7.37762 -0.88051 0.315597 -0.353696 47 99 93
0.380762 -0.274603 -7.37273 -0.563631 -0.223397 -0.795244 47 100 94
0.380193 -0.272719 -7.37246 -0.873009 0.350373 -0.339254 43 97 90
0.381771 -0.273057 -7.37384 -0.775433 -0.040224 -0.630148 38 92 86
0.37531 -0.27602 -7.3627 -0.719277 0.242915 -0.650871 120 106 94
0.375749 -0.276995 -7.36447 -0.853382 0.200325 -0.481257 69 91 82
0.374886 -0.277396 -7.36325 -0.707548 0.246284 -0.66236 121 94 82
0.374762 -0.277811 -7.36261 -0.643601 0.271777 -0.715482 141 99 86
0.37255 -0.277937 -7.35792 -0.72665 -0.0194258 -0.686733 175 129 111
0.368181 -0.282167 -7.35109 -0.924985 0.184593 -0.332157 168 133 115
0.365681 -0.283685 -7.34767 -0.710412 0.0555914 -0.701588 168 140 129
0.354497 -0.288734 -7.33211 -0.800128 0.322422 -0.505806 173 131 115
0.353805 -0.28807 -7.33014 -0.886025 0.212431 -0.412107 171 135 119
0.344732 -0.291677 -7.31928 -0.862301 0.403739 -0.305665 43 94 89
0.342718 -0.292641 -7.31705 -0.791369 0.173932 -0.586075 48 102 95
0.339953 -0.292651 -7.31221 -0.870453 0.0267028 -0.491528 47 99 93
0.341205 -0.292907 -7.31557 -0.886918 0.133868 -0.442103 44 96 89
0.338984 -0.293615 -7.31031 -0.794196 0.17779 -0.581071 46 97 91
0.338508 -0.295471 -7.31037 -0.820127 -0.106541 -0.562175 46 98 92
0.337817 -0.294344 -7.30895 -0.798003 0.152855 -0.582947 46 99 93
0.337631 -0.296362 -7.309 -0.798013 0.101201 -0.594082 51 108 101
0.336638 -0.295101 -7.30761 -0.76788 0.0723002 -0.636501 44 96 90
0.336458 -0.297068 -7.3076 -0.749587 0.201243 -0.630572 44 97 91
0.335697 -0.296133 -7.30598 -0.804907 0.123139 -0.580484 45 97 92
0.332769 -0.296671 -7.30173 -0.836296 0.223165 -0.500806 44 98 92
0.332434 -0.296425 -7.30173 -0.855984 0.1831 -0.483494 44 99 93
0.331715 -0.297487 -7.30015 -0.839965 0.197934 -0.505254 46 100 94
0.330546 -0.298407 -7.29835 -0.843948 0.0915815 -0.528549 42 97 91
0.326871 -0.298965 -7.29294 -0.869716 0.120667 -0.478574 44 98 91
0.325726 -0.299806 -7.29144 -0.835054 0.150421 -0.529205 44 98 91
0.311086 -0.309108 -7.2641 -0.680993 0.241411 -0.691353 46 93 87
0.303275 -0.314814 -7.25511 -0.854692 0.286123 -0.433169 158 115 97
0.288013 -0.321798 -7.23212 -0.752567 0.473343 -0.457809 166 115 93
0.287543 -0.320141 -7.23117 -0.751963 0.326286 -0.572791 167 106 85
0.286314 -0.321862 -7.23131 -0.653765 0.3121 -0.689337 165 109 83
0.284419 -0.321694 -7.229 -0.2025 0.408728 -0.889907 147 83 60
0.281549 -0.32011 -7.23279 -0.0594008 0.425916 -0.90281 141 82 61
0.27745 -0.319722 -7.23271 -0.362803 0.37456 -0.853276 154 50 42
0.279491 -0.319898 -7.23285 -0.217555 0.353427 -0.909813 125 68 52
0.276447 -0.321311 -7.23285 -0.203336 0.324363 -0.92382 193 45 42
0.275531 -0.319477 -7.23254 -0.372646 0.348218 -0.860163 220 46 47
0.275561 -0.319613 -7.23207 -0.0457271 0.378997 -0.924268 223 46 48
0.273146 -0.319071 -7.23331 0.622764 0.336145 -0.70652 237 59 58
0.269709 -0.319168 -7.23104 -0.615845 0.193085 -0.763841 245 78 87
0.268578 -0.321872 -7.22912 0.112942 0.259438 -0.959133 235 87 99
0.270479 -0.321244 -7.23027 0.0526999 0.290557 -0.955405 249 83 91
0.265584 -0.31979 -7.22865 -0.310605 0.24222 -0.91916 71 35 33
0.267512 -0.320085 -7.22853 -0.0406182 0.24198 -0.969431 176 60 69
0.266414 -0.32157 -7.22923 -0.160311 0.247706 -0.95548 122 44 47
0.264482 -0.321402 -7.22902 -0.353424 0.263211 -0.89767 73 36 35
0.263662 -0.319459 -7.22887 -0.239955 0.193424 -0.95132 59 35 32
0.262598 -0.321195 -7.22881 -0.412985 0.33907 -0.845266 66 38 33
0.260806 -0.321059 -7.22829 -0.133058 0.183417 -0.973989 69 40 33
0.25825 -0.320811 -7.22841 0.127659 -0.0626765 -0.989836 65 38 32
0.256245 -0.321153 -7.22819 0.115836 -0.090687 -0.98912 71 40 33
0.256953 -0.318581 -7.22858 0.431319 -0.258147 -0.864479 50 28 26
0.254025 -0.318267 -7.23083 0.504476 -0.163926 -0.847722 49 29 26
0.252237 -0.319 -7.23108 0.511943 -0.154966 -0.844926 54 33 30
0.252237 -0.319 -7.23108 0.511943 -0.154966 -0.844926 54 33 30
0.245628 -0.312699 -7.24147 0.227095 -0.138062 -0.964037 54 35 34
0.242109 -0.320858 -7.22514 0.221633 0.0437298 -0.974149 65 39 36
0.479417 -0.236421 -7.49916 -0.844361 0.535332 0.0217601 217 65 61
0.440275 -0.248364 -7.45481 -0.597986 0.795232 -0.100097 218 67 64
0.434667 -0.246842 -7.46352 -0.679099 0.731173 -0.064891 225 62 62
0.436913 -0.249297 -7.45741 -0.394075 0.914638 -0.0902383 227 62 63
0.439559 -0.250222 -7.45313 -0.899183 0.177036 -0.400161 231 65 63
0.438489 -0.253248 -7.44535 -0.90164 0.170428 -0.397492 231 64 65
0.386571 -0.273085 -7.38238 -0.88284 0.341393 -0.322559 45 98 91
0.385617 -0.27376 -7.38085 -0.866222 0.221623 -0.447819 44 99 92
0.384179 -0.274499 -7.37946 -0.844387 0.152641 -0.513529 43 95 89
0.381774 -0.277389 -7.37472 -0.796393 0.414167 -0.440708 42 96 90
0.376592 -0.278388 -7.36537 -0.728033 0.092899 -0.679219 49 90 84
0.377975 -0.277728 -7.36624 -0.843227 0.232577 -0.48464 47 101 93
0.375449 -0.279093 -7.36371 -0.716927 0.0411232 -0.695934 102 92 80
0.375409 -0.279005 -7.36423 -0.77897 0.157371 -0.606992 94 90 79
0.359292 -0.28708 -7.33954 -0.825611 0.207799 -0.524582 179 115 100
0.360345 -0.28639 -7.3409 -0.8921 0.222456 -0.393283 176 119 102
0.360094 -0.288473 -7.34058 -0.917308 0.202655 -0.342749 179 113 97
0.352749 -0.291471 -7.32958 -0.89021 0.0926717 -0.446025 177 125 110
0.345371 -0.294651 -7.32335 -0.483906 0.420162 -0.767658 47 97 90
0.335557 -0.299267 -7.30754 -0.840332 0.173691 -0.513492 47 99 94
0.31092 -0.312096 -7.26582 -0.781542 0.17168 -0.599765 48 102 93
0.309363 -0.314933 -7.26406 -0.103809 0.232673 -0.966999 106 107 97
0.302171 -0.315512 -7.2535 -0.840119 0.28614 -0.460787 173 130 112
0.302171 -0.315531 -7.25353 -0.845611 0.274417 -0.457862 173 130 112
0.286839 -0.323599 -7.23217 -0.704374 0.385173 -0.596237 158 95 74
0.285159 -0.323701 -7.23138 -0.650509 0.302869 -0.696497 162 91 67
0.282425 -0.324689 -7.23217 0.347357 0.329422 -0.877966 138 78 55
0.278311 -0.321437 -7.23344 -0.283239 0.323815 -0.902729 125 54 39
0.279438 -0.32375 -7.23433 0.0103417 0.276092 -0.961075 120 68 51
0.277178 -0.323102 -7.23381 -0.156162 0.422709 -0.89271 155 47 38
0.27518 -0.323097 -7.2333 -0.239009 0.290709 -0.926479 227 47 49
0.274263 -0.321166 -7.23311 -0.046615 0.304115 -0.951494 236 56 56
0.276322 -0.321454 -7.2329 -0.229733 0.330496 -0.91542 197 45 42
0.271025 -0.32224 -7.23417 0.0403585 0.199439 -0.979079 247 79 84
0.272075 -0.320991 -7.23345 -0.0245025 0.360059 -0.932608 244 71 73
0.269109 -0.322837 -7.23178 -0.0117556 0.412302 -0.910971 247 94 104
0.267371 -0.323348 -7.22979 -0.15522 0.286181 -0.94552 186 72 79
0.26712 -0.32407 -7.23249 -0.841547 0.241352 -0.483267 205 87 91
0.264488 -0.322868 -7.22889 -0.442463 0.425914 -0.789192 74 48 40
0.264192 -0.324905 -7.22887 -0.61808 0.353124 -0.702339 100 73 59
0.262659 -0.325617 -7.22649 -0.750043 0.261765 -0.607384 105 77 62
0.261395 -0.323536 -7.22706 -0.367605 0.139951 -0.919391 76 47 38
0.253939 -0.323925 -7.22661 0.6433 -0.0556827 -0.763587 90 60 47
0.250655 -0.32303 -7.22618 0.169643 0.0468175 -0.984393 87 60 47
0.246991 -0.325164 -7.22423 0.028154 0.0327927 -0.999066 77 65 57
0.244653 -0.325256 -7.22406 0.350693 -0.233415 -0.906935 126 106 90
0.245827 -0.323136 -7.22423 0.186208 0.101759 -0.977227 78 65 58
0.243267 -0.32291 -7.22521 0.108801 -0.153923 -0.982074 98 73 60
0.242233 -0.324526 -7.2224 0.0776612 -0.161607 -0.983795 111 83 67
0.23859 -0.323551 -7.22451 0.037039 -0.142454 -0.989108 120 93 76
0.478934 -0.237958 -7.49596 -0.874041 0.48405 -0.0418144 223 64 63
0.439354 -0.253295 -7.452 -0.899179 0.191756 -0.393328 125 35 32
0.439062 -0.25293 -7.45299 -0.800068 0.304014 -0.517171 122 34 31
0.438897 -0.255427 -7.44746 -0.873537 0.100572 -0.476255 93 34 29
0.412282 -0.265219 -7.41792 -0.874018 -0.036036 -0.484555 34 79 75
0.413652 -0.264408 -7.41859 -0.91735 0.01798 -0.397674 34 78 74
0.40515 -0.267258 -7.40618 -0.930248 0.217292 -0.295672 38 88 83
0.386115 -0.275072 -7.3821 -0.844916 0.280514 -0.455445 45 101 94
0.385361 -0.276785 -7.38223 -0.807979 0.159017 -0.567348 46 103 96
0.384815 -0.275595 -7.38089 -0.855209 0.161779 -0.492387 42 98 91
0.384425 -0.277591 -7.38078 -0.811408 0.146401 -0.565848 42 97 91
0.382052 -0.278607 -7.37611 -0.872753 0.133168 -0.469646 41 97 90
