ply
format ascii 1.0
element vertex 709
property float x
property float y
property float z
property float nx
property float ny
property float nz
property uchar diffuse_red
property uchar diffuse_green
property uchar diffuse_blue
end_header
0.275664 -0.458329 -3.9025 -0.608552 0.362866 0.705686 115 70 72
0.270464 -0.456496 -3.90721 -0.605262 0.34049 0.71953 141 92 95
0.277718 -0.456223 -3.90359 -0.668583 0.406689 0.622576 102 62 64
0.281974 -0.457426 -3.89789 -0.514632 0.253769 0.818997 104 64 66
0.284667 -0.455237 -3.90004 -0.353392 0.445304 0.82269 93 56 57
0.300129 -0.456406 -3.89106 -0.62185 0.133697 0.77164 108 71 72
0.298769 -0.456148 -3.89204 -0.620854 0.141061 0.771131 103 67 67
0.306454 -0.455296 -3.88626 -0.625142 0.422435 0.656312 118 84 86
0.307581 -0.454714 -3.88772 -0.765963 0.349631 0.539499 115 81 83
0.312726 -0.454545 -3.88126 -0.619344 0.420815 0.662818 112 79 81
0.337243 -0.454651 -3.87195 -0.146207 0.671122 0.726787 124 82 81
0.361099 -0.453807 -3.8316 -0.421435 0.786659 0.451176 133 85 82
0.371501 -0.449195 -3.82955 -0.199675 0.883957 0.422788 136 87 84
0.382681 -0.45022 -3.82109 -0.227947 0.742053 0.630394 82 45 45
0.392874 -0.452272 -3.81544 0.0635208 0.37121 0.926374 124 79 76
0.393853 -0.451685 -3.81706 -0.0408655 0.382608 0.923006 134 87 85
0.402026 -0.448069 -3.82179 0.136424 0.73607 0.663015 163 108 103
0.402829 -0.446675 -3.82224 0.0768058 0.68654 0.723024 163 107 101
0.411565 -0.450683 -3.81811 -0.0651302 0.411346 0.909149 157 107 106
0.420061 -0.451453 -3.82439 0.633265 0.209163 0.745135 79 40 38
0.469584 -0.451448 -3.8193 -0.8385 0.0620239 0.54136 53 37 37
0.479629 -0.446657 -3.799 -0.778131 0.119054 0.616716 81 84 87
0.502468 -0.449442 -3.77647 -0.397113 0.767955 0.502541 59 75 72
0.554535 -0.441692 -3.75936 -0.699647 -0.281516 0.656691 44 55 56
0.584046 -0.440854 -3.71916 -0.228101 0.798144 0.557616 46 55 52
0.593362 -0.439426 -3.71679 -0.55335 0.675395 0.487488 43 53 48
0.60185 -0.440833 -3.71833 0.265104 0.77437 0.574517 54 63 59
0.611929 -0.437448 -3.71538 0.0662171 0.023009 0.99754 51 58 51
0.619842 -0.437696 -3.71346 -0.405526 -0.00974251 0.914031 43 49 45
0.63835 -0.438895 -3.70625 -0.737333 -0.129292 0.663042 68 75 66
0.633925 -0.43912 -3.71336 -0.621341 -0.518582 0.587374 75 78 73
0.645305 -0.435093 -3.69469 -0.711806 0.214526 0.668813 64 78 64
0.659382 -0.4366 -3.67585 -0.186225 0.734588 0.652457 73 82 75
0.664209 -0.434321 -3.67596 -0.188306 0.698019 0.690876 64 73 65
0.66693 -0.433467 -3.67782 -0.21643 0.44997 0.866421 56 66 57
0.672183 -0.43494 -3.67712 -0.695016 0.18988 0.693468 51 64 55
-0.220082 -0.493331 -4.15805 -0.242753 -0.194194 0.950452 98 90 89
-0.226023 -0.493731 -4.16213 -0.239735 -0.0373206 0.970121 120 108 107
-0.217146 -0.486946 -4.15957 -0.302343 -0.262693 0.916287 78 67 65
0.00301246 -0.480369 -4.02467 -0.439824 0.374591 0.816233 76 75 66
0.00989176 -0.480605 -4.02261 -0.446424 0.46218 0.766222 99 105 106
0.0168083 -0.480626 -4.01812 -0.495983 0.459604 0.736725 146 163 178
0.0219962 -0.474281 -4.01942 -0.415318 0.450984 0.790016 148 167 185
0.0289166 -0.47443 -4.01701 -0.393587 0.451304 0.800883 146 168 188
0.0405157 -0.477896 -4.004 -0.394847 0.385031 0.834174 144 166 186
0.0338921 -0.478124 -4.00912 -0.460005 0.427946 0.777983 147 168 188
0.0472776 -0.478001 -4.00094 -0.455817 0.4103 0.789864 144 165 184
0.0454517 -0.47155 -4.00408 -0.365749 0.359547 0.85846 145 165 184
0.0545957 -0.478011 -3.99807 -0.33078 0.465916 0.820675 131 147 160
0.0617846 -0.478183 -3.99663 -0.102536 0.409645 0.906464 85 89 95
0.0716555 -0.47529 -4.00913 0.328169 0.233418 0.915326 39 24 22
0.0713843 -0.475304 -4.00928 0.284512 0.259115 0.922991 39 25 23
0.0798132 -0.475488 -4.01387 0.691658 0.337673 0.638425 51 26 23
0.0972088 -0.476527 -4.0117 -0.0815207 -0.616683 0.782979 74 40 36
0.106963 -0.476409 -4.00973 -0.285301 -0.347036 0.893403 82 43 40
0.133209 -0.472153 -3.99946 -0.780063 -0.0219017 0.625317 107 57 52
0.145106 -0.47103 -3.98695 -0.656126 0.528462 0.538726 119 79 82
0.147096 -0.477878 -3.98156 -0.598384 0.34517 0.723045 131 90 94
0.151905 -0.47074 -3.98078 -0.602633 0.40664 0.686642 130 81 82
0.15368 -0.477161 -3.97602 -0.680846 0.195159 0.705947 118 69 69
0.161901 -0.472939 -3.97228 -0.767635 -0.140298 0.625342 140 85 84
0.171336 -0.472001 -3.96911 -0.748329 -0.211899 0.628572 139 84 88
0.182029 -0.469612 -3.95429 -0.555537 0.261397 0.789336 144 85 83
0.188594 -0.469299 -3.94954 -0.550208 0.331496 0.766409 149 91 93
0.199496 -0.47021 -3.94124 -0.538727 0.371011 0.756389 97 58 61
0.207778 -0.470175 -3.93546 -0.501402 0.383534 0.775563 131 79 82
0.206093 -0.469769 -3.93567 -0.565969 0.406326 0.717341 122 74 77
0.214384 -0.47018 -3.93046 -0.473682 0.344913 0.810346 145 89 91
0.225491 -0.471308 -3.92444 -0.333368 0.404472 0.851627 154 102 103
0.232925 -0.466239 -3.92135 -0.384074 0.534482 0.752872 155 102 103
0.238906 -0.468511 -3.92142 -0.718402 0.419904 0.554599 149 95 97
0.244976 -0.466864 -3.91569 -0.685686 0.418652 0.595454 136 81 83
0.250874 -0.465802 -3.91257 -0.520246 0.33946 0.783652 148 94 97
0.257225 -0.465589 -3.90981 -0.300543 0.453182 0.839226 155 100 102
0.264144 -0.465028 -3.9044 -0.346357 0.458928 0.818182 154 96 98
0.270268 -0.465556 -3.90702 -0.711129 0.463788 0.528389 147 93 95
0.27637 -0.463924 -3.89978 -0.602347 0.402774 0.689166 113 65 67
0.277844 -0.464323 -3.8974 -0.609893 0.33748 0.717034 110 62 65
0.282752 -0.463199 -3.8943 -0.667835 0.369377 0.646186 124 77 80
0.285728 -0.46341 -3.89617 -0.379833 0.458089 0.803667 125 78 81
0.295983 -0.463029 -3.89288 -0.400151 0.22901 0.887374 135 90 92
0.294985 -0.462479 -3.89191 -0.42884 0.150262 0.890796 133 89 91
0.301808 -0.462216 -3.88632 -0.622634 0.418293 0.66133 140 97 101
0.302994 -0.462814 -3.88784 -0.738077 0.418369 0.529348 141 97 102
0.309228 -0.467338 -3.87956 -0.716803 0.463832 0.520628 142 100 108
0.314293 -0.460891 -3.87791 -0.556387 0.499754 0.663837 130 84 89
0.320267 -0.460835 -3.87124 -0.641046 0.4126 0.647164 127 86 89
0.330057 -0.460819 -3.87098 -0.192128 0.575164 0.795156 146 98 100
0.337176 -0.462168 -3.86478 -0.321784 0.660952 0.677937 153 95 97
0.344499 -0.463595 -3.85921 -0.653848 0.571588 0.495752 110 65 68
0.354201 -0.46165 -3.84321 -0.693856 0.513821 0.50453 112 69 69
0.373139 -0.455021 -3.81312 -0.224115 0.877603 0.423775 72 36 33
0.382681 -0.457513 -3.81201 -0.429901 0.665121 0.610573 76 41 39
0.397903 -0.458212 -3.81268 0.599946 0.351442 0.718716 122 72 69
0.40715 -0.457698 -3.81841 0.425046 -0.0396872 0.904301 147 97 98
0.415629 -0.458263 -3.82277 0.23899 -0.192231 0.951804 104 63 63
0.424163 -0.459083 -3.83209 0.589725 -0.200373 0.782352 70 40 41
0.430503 -0.461223 -3.83967 0.576558 -0.236808 0.781987 44 25 27
0.439374 -0.459123 -3.84871 0.581451 -0.221222 0.782928 36 23 21
0.462042 -0.458846 -3.83671 -0.829246 -0.0699028 0.554495 55 37 38
0.476491 -0.456975 -3.79808 -0.805484 0.0440242 0.590979 75 80 77
0.484337 -0.453709 -3.79193 -0.688863 0.205866 0.695044 84 107 113
0.492978 -0.451755 -3.78104 -0.24886 0.750696 0.611983 66 88 87
0.583128 -0.448038 -3.71908 -0.674438 0.58651 0.448484 58 67 63
0.591786 -0.447944 -3.70716 -0.213603 0.888833 0.4054 74 80 77
0.61606 -0.444781 -3.71385 -0.578157 -0.201609 0.790625 52 62 51
0.62395 -0.447623 -3.71252 -0.799338 -0.268014 0.537799 71 82 68
0.650943 -0.441875 -3.67811 -0.748475 0.491105 0.445646 70 81 74
0.663577 -0.440456 -3.66139 -0.397638 0.822024 0.407628 80 87 82
-0.222558 -0.500389 -4.16158 -0.241106 -0.194458 0.950818 108 100 97
-0.21541 -0.500249 -4.15888 -0.249213 -0.271662 0.929566 78 76 75
-0.208048 -0.500109 -4.15601 -0.253707 -0.249734 0.934487 101 97 97
-0.202346 -0.499128 -4.15371 -0.00012213 -0.0412248 0.99915 114 103 103
-8.9607e-005 -0.49009 -4.02193 -0.444503 0.276096 0.852167 65 67 56
0.0130879 -0.489113 -4.01535 -0.68613 0.442114 0.577721 144 159 174
0.0199738 -0.489171 -4.01188 -0.449908 0.420196 0.788047 150 172 193
0.0184115 -0.487232 -4.01366 -0.541363 0.415697 0.730837 150 171 190
0.0256949 -0.48748 -4.01305 -0.300378 0.494978 0.815334 149 172 193
0.0421429 -0.483759 -3.99598 -0.137799 0.503244 0.853087 147 169 190
0.0365762 -0.484498 -4.00637 -0.611475 0.544854 0.573789 144 166 185
0.049988 -0.483759 -3.99396 -0.221112 0.467115 0.856104 142 160 177
0.0570776 -0.48405 -3.99352 -0.0617831 0.394118 0.916981 99 109 119
0.0658259 -0.485147 -3.99293 -0.0579426 0.366785 0.9285 60 51 52
0.0876654 -0.489268 -4.01384 0.018 0.850303 0.525985 69 49 43
0.0975024 -0.485653 -4.01556 0.0754014 0.725533 0.684044 82 57 53
0.113123 -0.488989 -4.005 -0.104277 0.686417 0.719693 88 53 51
0.126209 -0.484113 -4.00497 -0.784994 -0.000827459 0.619502 95 53 49
0.13186 -0.480801 -4.00117 -0.70436 0.102246 0.70244 94 51 48
0.132827 -0.487821 -3.99851 -0.725604 0.290036 0.624001 97 58 60
0.140231 -0.479414 -3.99125 -0.747609 0.139661 0.649288 101 63 67
0.14279 -0.485336 -3.98423 -0.785958 0.146843 0.600589 120 84 89
0.15036 -0.482809 -3.97784 -0.700788 0.208882 0.682103 134 91 93
0.157466 -0.480858 -3.96764 -0.670594 0.509356 0.539314 124 74 71
0.16364 -0.480258 -3.96583 -0.529696 0.408105 0.743554 141 92 91
0.184522 -0.476054 -3.9494 -0.556291 0.30895 0.771421 144 87 86
0.195 -0.47673 -3.94101 -0.558958 0.411425 0.719928 115 74 77
0.201554 -0.476385 -3.93628 -0.535133 0.371504 0.758695 100 62 65
0.209535 -0.476598 -3.93206 -0.413755 0.352081 0.839551 140 83 88
0.216581 -0.476366 -3.92618 -0.380421 0.363805 0.85025 155 99 103
0.216439 -0.476317 -3.92629 -0.383948 0.314322 0.868208 155 99 103
0.223535 -0.47636 -3.92302 -0.468313 0.341374 0.814952 157 104 107
0.232883 -0.472913 -3.917 -0.328468 0.469337 0.819653 155 101 105
0.23487 -0.479645 -3.9172 -0.719783 0.436485 0.539809 153 100 104
0.246482 -0.473147 -3.91032 -0.712738 0.454751 0.534046 138 83 87
0.252668 -0.471528 -3.90417 -0.652238 0.556798 0.514356 152 98 102
0.260068 -0.471939 -3.90498 -0.201108 0.38098 0.902447 152 95 98
0.271263 -0.47185 -3.89993 -0.625627 0.389137 0.676139 128 79 81
0.278146 -0.470068 -3.89477 -0.662112 0.308299 0.683052 113 67 70
0.277494 -0.470964 -3.89525 -0.615098 0.295011 0.731179 112 67 70
0.280226 -0.47678 -3.8913 -0.561562 0.314629 0.765282 126 81 85
0.280647 -0.475997 -3.89115 -0.475384 0.298015 0.827767 126 81 86
0.283541 -0.469765 -3.89234 -0.564935 0.355849 0.744459 130 83 87
0.28705 -0.476096 -3.88828 -0.253074 0.243081 0.936411 135 92 97
0.286574 -0.475976 -3.88754 -0.268745 0.212906 0.939387 135 91 96
0.291545 -0.469142 -3.88987 -0.36953 0.337092 0.86592 137 91 95
0.290772 -0.469196 -3.89004 -0.293631 0.223087 0.929523 136 90 94
0.295154 -0.476171 -3.88673 -0.453342 0.335829 0.825651 139 96 102
0.294398 -0.476163 -3.88688 -0.467338 0.303882 0.830211 139 97 102
0.297071 -0.469538 -3.88988 -0.584359 0.53897 0.60666 139 94 98
0.303379 -0.46865 -3.88367 -0.730548 0.435417 0.526034 145 102 108
0.304358 -0.469203 -3.88314 -0.730607 0.435697 0.525719 143 100 105
0.304551 -0.475256 -3.88051 -0.738799 0.41267 0.532803 136 98 104
0.322059 -0.46693 -3.86607 -0.634325 0.383286 0.67136 144 101 104
0.329356 -0.467109 -3.86249 0.140917 0.331727 0.932791 150 94 95
0.349923 -0.469419 -3.84401 -0.818099 0.142969 0.557022 105 69 68
0.360017 -0.462176 -3.81697 -0.492136 0.738693 0.460581 145 95 91
0.373137 -0.461792 -3.79965 -0.253752 0.785688 0.564184 119 73 67
0.38267 -0.466316 -3.8106 -0.725558 0.46715 0.505309 128 75 65
0.393466 -0.465761 -3.80898 0.575126 -0.253265 0.777873 108 53 44
0.403284 -0.467237 -3.81121 0.397291 0.0445832 0.916609 109 61 55
0.411076 -0.465193 -3.81802 0.640471 0.0440861 0.766716 109 63 64
0.419534 -0.466046 -3.82844 0.61867 -0.102729 0.778906 106 66 71
0.435421 -0.468598 -3.8427 0.635198 0.0200702 0.772088 42 30 30
0.46882 -0.464624 -3.8203 -0.802977 -0.0182772 0.59573 65 69 60
0.482846 -0.461835 -3.78025 0.00808805 0.904247 0.426933 67 89 72
0.480925 -0.462861 -3.78103 -0.628654 0.626231 0.461116 72 95 77
0.493052 -0.459205 -3.77462 0.26921 0.791906 0.548098 58 78 57
0.501592 -0.453719 -3.73948 -0.701191 0.534775 0.471537 55 73 55
0.651927 -0.448004 -3.65575 -0.445873 0.795679 0.409991 76 81 70
-0.228988 -0.514078 -4.16558 -0.290969 -0.254454 0.922274 115 106 103
-0.221734 -0.51467 -4.1686 -0.230509 -0.273331 0.933893 106 101 99
-0.225873 -0.507326 -4.16443 -0.145824 -0.24591 0.958261 110 103 99
-0.219605 -0.506926 -4.16116 -0.247161 -0.283033 0.926717 93 90 88
-0.221754 -0.514685 -4.16872 -0.23692 -0.262667 0.935348 106 101 99
-0.203079 -0.50711 -4.15727 -0.0128086 0.0543735 0.998438 105 100 100
-0.0048844 -0.49651 -4.02234 -0.60055 0.0888649 0.794633 62 66 53
0.00201355 -0.496609 -4.0194 -0.43633 0.401446 0.805268 71 78 69
0.00666356 -0.490277 -4.01979 -0.442367 0.368103 0.817809 93 100 102
0.0133423 -0.493839 -4.01336 -0.612401 0.464203 0.639907 147 164 183
0.0241561 -0.494337 -4.00362 -0.644469 0.201205 0.737683 152 174 195
0.031377 -0.491174 -3.97807 0.387673 0.774061 0.500538 146 168 190
0.0380651 -0.492668 -3.97858 0.324653 0.81359 0.48236 139 164 186
0.0454968 -0.489655 -3.98916 -0.0489917 0.544396 0.837396 144 166 186
0.0531099 -0.48994 -3.98957 -0.216322 0.526272 0.82234 112 125 136
0.0600131 -0.492735 -3.98721 -0.135522 0.521325 0.842529 67 75 72
0.0697009 -0.492792 -3.99409 -0.083712 0.197226 0.976777 60 64 57
0.0772886 -0.494185 -4.00515 0.640869 0.469891 0.607033 60 66 57
0.0978263 -0.492807 -4.00343 0.0209975 0.913387 0.40655 76 68 62
0.104501 -0.494852 -3.99911 -0.120459 0.890235 0.439285 70 64 57
0.112297 -0.496413 -3.99551 -0.284371 0.720505 0.632461 80 70 65
0.129663 -0.495895 -3.9959 -0.723872 0.287898 0.626996 107 74 74
0.135818 -0.493594 -3.99046 -0.729083 0.387263 0.564327 109 74 74
0.145658 -0.490019 -3.97421 -0.332209 0.767231 0.548629 145 106 108
0.158014 -0.487936 -3.96514 -0.676275 0.494157 0.546315 138 90 92
0.151926 -0.489028 -3.96928 -0.668827 0.455631 0.587428 130 84 87
0.166964 -0.488705 -3.9581 -0.543188 0.37886 0.749275 128 79 82
0.177083 -0.485043 -3.95124 -0.720415 0.249137 0.647251 146 90 93
0.18332 -0.4838 -3.94839 -0.619168 0.293324 0.728418 148 88 89
0.185308 -0.489783 -3.94055 -0.502078 0.425815 0.752728 146 93 95
0.190161 -0.483303 -3.94098 -0.555214 0.417185 0.719509 139 93 98
0.191225 -0.48915 -3.93537 -0.405496 0.416126 0.813887 109 78 82
0.191747 -0.489654 -3.9363 -0.506151 0.422178 0.752048 104 75 78
0.196676 -0.483043 -3.93616 -0.504704 0.416333 0.756268 92 61 64
0.198111 -0.489484 -3.93209 -0.510489 0.411819 0.754855 95 64 65
0.21192 -0.482703 -3.92809 -0.383975 0.38481 0.839336 145 91 95
0.20742 -0.488751 -3.92705 -0.398957 0.418874 0.815707 139 87 91
0.214528 -0.488299 -3.9201 -0.180172 0.413813 0.892355 155 102 107
0.219099 -0.482456 -3.92198 -0.301344 0.299491 0.905261 160 108 111
0.230467 -0.487194 -3.91323 -0.635432 0.489261 0.597369 152 100 103
0.236072 -0.486047 -3.91138 -0.716012 0.447644 0.535669 136 84 88
0.251989 -0.480485 -3.90224 -0.369279 0.448678 0.813831 156 98 102
0.266901 -0.479373 -3.90074 -0.639997 0.379349 0.668205 143 95 98
0.262557 -0.486882 -3.90377 -0.715436 0.376927 0.588284 147 96 99
0.273074 -0.478044 -3.89577 -0.615564 0.310976 0.724138 108 67 68
0.269229 -0.485027 -3.89493 -0.638411 0.364863 0.677722 113 72 75
0.275451 -0.483884 -3.88996 -0.511557 0.328004 0.794181 110 68 69
0.275779 -0.48386 -3.89117 -0.491252 0.351214 0.79707 111 69 70
0.282966 -0.482141 -3.88725 -0.364177 0.385533 0.847785 132 86 92
0.282809 -0.482659 -3.88697 -0.3275 0.369621 0.869554 133 86 92
0.290283 -0.482917 -3.8863 -0.315216 0.317406 0.894367 148 104 111
0.297953 -0.4823 -3.88046 -0.569926 0.230759 0.788628 143 96 105
0.311404 -0.47904 -3.87143 -0.736563 0.186007 0.65029 117 84 88
0.344416 -0.473317 -3.84781 -0.765064 0.369608 0.527321 110 87 89
0.355747 -0.475116 -3.81172 -0.82091 0.109604 0.560441 114 63 58
0.373081 -0.470437 -3.80213 -0.716254 0.482354 0.504296 128 70 59
0.37539 -0.472033 -3.803 -0.747347 0.422202 0.513048 122 62 51
0.390931 -0.473616 -3.80004 0.520368 0.224597 0.823877 104 53 40
0.399391 -0.474732 -3.80836 0.59585 0.390534 0.701745 99 58 52
0.412643 -0.477753 -3.82327 0.635069 -0.0130129 0.772346 90 65 64
0.421323 -0.475439 -3.83301 0.590729 -0.198896 0.781972 94 66 70
0.493121 -0.46667 -3.76644 0.410607 0.668621 0.619957 45 60 39
0.501811 -0.462582 -3.72611 -0.68335 0.561857 0.466207 55 67 55
0.512539 -0.46188 -3.71004 -0.313368 0.853925 0.415466 48 58 50
0.510657 -0.460493 -3.71314 -0.124266 0.907033 0.402304 51 61 54
0.521702 -0.461224 -3.69233 -0.457018 0.77968 0.428058 62 75 59
0.550555 -0.463225 -3.68898 -0.0602424 0.914902 0.399155 84 82 78
-0.224633 -0.521107 -4.16742 -0.174081 -0.17848 0.968422 104 97 96
-0.205437 -0.514755 -4.159 -0.254901 -0.188411 0.948434 94 90 87
-0.00571147 -0.501735 -4.02148 -0.622995 0.0607973 0.779859 61 67 54
0.00144035 -0.501677 -4.01709 -0.4294 0.454173 0.780604 81 90 83
0.00789955 -0.501025 -4.01302 -0.656951 0.498339 0.565751 135 150 164
0.0226405 -0.502442 -3.99857 -0.731503 0.170132 0.660271 145 169 193
0.0302821 -0.499545 -3.98395 -0.161272 0.579826 0.79862 145 169 193
0.0531125 -0.496921 -3.98507 -0.174848 0.593504 0.785609 84 101 101
0.0454388 -0.497739 -3.98456 0.0259217 0.54671 0.83692 110 136 147
0.0598033 -0.500692 -3.99021 0.596517 0.553892 0.580837 60 73 60
0.0836363 -0.50251 -3.98888 0.127537 0.894769 0.427927 49 65 49
0.0978548 -0.49955 -3.98804 0.119105 0.896018 0.427744 68 81 70
0.104807 -0.500671 -3.98807 -0.202103 0.825318 0.527262 64 80 69
0.113351 -0.503306 -3.99306 -0.262154 0.833912 0.485661 61 66 62
0.122856 -0.504082 -3.98794 -0.479949 0.727913 0.489686 72 73 68
0.138596 -0.500855 -3.96887 -0.392519 0.633509 0.66678 113 91 95
0.146513 -0.500882 -3.95906 -0.401467 0.703903 0.585956 88 78 78
0.153336 -0.495383 -3.96197 -0.68707 0.448544 0.571615 109 77 78
0.167022 -0.495432 -3.95168 -0.638736 0.562285 0.525216 140 86 91
0.160491 -0.496051 -3.95796 -0.447784 0.664236 0.598565 136 93 96
0.173475 -0.496194 -3.94778 -0.522771 0.542714 0.657398 151 96 101
0.180105 -0.495946 -3.94109 -0.547807 0.437547 0.713064 145 86 86
0.192998 -0.495613 -3.93166 -0.394255 0.325648 0.85937 82 63 62
0.199227 -0.495633 -3.92604 -0.622744 0.353776 0.697877 106 73 73
0.209759 -0.49454 -3.92069 -0.341966 0.360594 0.867774 150 99 104
0.216821 -0.494597 -3.91128 -0.286565 0.524864 0.801497 156 107 111
0.245946 -0.488157 -3.90193 -0.444745 0.338393 0.829272 146 98 102
0.257069 -0.486854 -3.89457 0.297201 0.294343 0.908314 148 90 90
0.258584 -0.494198 -3.89942 -0.599109 0.345164 0.722447 157 102 105
0.252718 -0.493747 -3.89256 0.464207 0.226593 0.856252 153 100 101
0.252718 -0.493747 -3.89256 0.464207 0.226593 0.856252 153 100 101
0.264961 -0.493021 -3.89289 -0.600825 0.422629 0.678524 137 88 94
0.271403 -0.490904 -3.88897 -0.605626 0.378247 0.700104 100 59 63
0.278119 -0.489193 -3.88643 -0.40052 0.42847 0.809936 130 81 84
0.278292 -0.488487 -3.88675 -0.391578 0.418461 0.819486 130 81 84
0.28553 -0.488522 -3.88394 -0.20765 0.382803 0.900191 145 96 103
0.285653 -0.489199 -3.88364 -0.224174 0.394797 0.891 146 97 104
0.294259 -0.489037 -3.88016 -0.569679 0.31324 0.759834 149 100 108
0.300557 -0.488126 -3.87601 -0.57201 0.134109 0.809209 142 95 102
0.306835 -0.485788 -3.87307 -0.588308 0.460157 0.664943 130 91 97
0.312945 -0.48538 -3.86709 -0.494385 0.500038 0.711017 117 82 87
0.347365 -0.481422 -3.82605 -0.816044 0.159675 0.555496 102 73 74
0.353137 -0.476638 -3.80871 -0.799341 0.261436 0.541023 108 65 62
0.362721 -0.47723 -3.80211 -0.608526 0.123137 0.783922 105 48 35
0.377022 -0.481568 -3.79294 -0.681294 0.54184 0.492187 91 42 27
0.3866 -0.481911 -3.80588 0.544196 0.515006 0.662283 94 46 33
0.396835 -0.481706 -3.79225 0.477395 0.61541 0.627188 81 61 53
0.394671 -0.481525 -3.7936 0.428454 0.675167 0.600481 89 59 52
0.501563 -0.471098 -3.71035 -0.574198 0.687075 0.445223 59 71 56
0.510305 -0.469779 -3.69134 -0.545224 0.714007 0.439232 67 80 67
0.512408 -0.467953 -3.69323 -0.405144 0.810936 0.422185 61 75 63
0.519358 -0.469995 -3.68211 -0.0393303 0.91373 0.404414 72 87 71
0.524254 -0.467666 -3.69169 -0.0717454 0.915247 0.396453 61 75 58
0.537436 -0.469731 -3.68344 -0.310306 0.857798 0.409747 77 93 76
0.539217 -0.468355 -3.6789 -0.10603 0.911642 0.397072 79 93 78
0.549567 -0.469382 -3.67548 -0.292974 0.813828 0.501847 88 97 81
0.559991 -0.463519 -3.68069 -0.370232 0.748291 0.550443 70 73 66
-0.232996 -0.525405 -4.15053 0.217009 0.651769 0.726707 89 87 92
-0.00368974 -0.507978 -4.01666 -0.416481 0.505432 0.7557 71 82 68
0.00341679 -0.507971 -4.0127 -0.647075 0.503081 0.572891 131 146 154
0.0283843 -0.505628 -3.97461 -0.53228 0.208889 0.820392 135 159 177
0.0165768 -0.505726 -4.00513 -0.632016 0.541826 0.554058 157 180 205
0.0202779 -0.509111 -3.99386 -0.727674 0.343854 0.59351 154 178 199
0.0339156 -0.505272 -3.98093 -0.263953 0.57798 0.772184 126 151 167
0.0453593 -0.505763 -3.98022 0.187985 0.384661 0.903713 89 115 111
0.0539582 -0.50579 -3.98265 0.203402 0.409595 0.889303 61 82 68
0.101608 -0.504319 -3.92786 -0.323503 0.683982 0.653846 64 77 65
0.10463 -0.506887 -3.98102 -0.195854 0.734403 0.649841 51 64 56
0.114064 -0.510222 -3.9828 -0.307774 0.837505 0.45151 60 74 65
0.1228 -0.510168 -3.9798 -0.457886 0.746243 0.483179 74 85 78
0.145925 -0.50838 -3.96128 -0.717819 0.242385 0.652676 80 80 82
0.153271 -0.501795 -3.95598 -0.473344 0.623384 0.622365 86 71 72
0.168413 -0.502482 -3.94661 -0.454315 0.570236 0.684418 127 85 90
0.17487 -0.502585 -3.94289 -0.545053 0.431818 0.718645 132 87 91
0.181462 -0.502413 -3.93685 -0.555171 0.303841 0.774252 142 93 92
0.195145 -0.502832 -3.9265 -0.55944 0.392539 0.730027 85 70 66
0.20148 -0.50174 -3.92163 -0.496005 0.447647 0.744037 127 87 86
0.212549 -0.500627 -3.91559 -0.568315 0.428084 0.702682 157 108 113
0.222111 -0.497937 -3.91041 -0.23382 0.432697 0.87069 147 96 99
0.231721 -0.497032 -3.90712 -0.582565 0.395287 0.710188 149 96 100
0.2381 -0.496513 -3.90248 -0.588152 0.282355 0.757861 130 79 83
0.247002 -0.500477 -3.89675 -0.182356 0.261161 0.947914 157 108 113
0.254812 -0.500425 -3.89387 -0.283207 0.344912 0.894891 152 97 100
0.267137 -0.497708 -3.88857 -0.601646 0.430062 0.673103 110 67 73
0.260852 -0.498147 -3.89287 -0.599683 0.397771 0.694376 153 99 104
0.273422 -0.49728 -3.88435 -0.489946 0.461225 0.739746 112 72 77
0.280512 -0.49636 -3.88353 -0.243419 0.492733 0.835441 132 86 92
0.288821 -0.495955 -3.88345 -0.0039747 0.4481 0.893975 147 105 111
0.288762 -0.496636 -3.88367 0.0951576 0.553564 0.827352 145 105 109
0.296025 -0.49424 -3.86727 -0.315284 0.745651 0.587027 138 95 101
0.302624 -0.492056 -3.86539 0.25044 0.487759 0.836284 132 92 96
0.314605 -0.493937 -3.86219 -0.396195 0.195753 0.897056 98 81 81
0.33093 -0.491721 -3.82598 -0.0268887 0.917941 0.395804 84 76 73
0.344788 -0.48808 -3.83236 -0.028953 0.917458 0.396778 99 84 83
0.352729 -0.488523 -3.81075 -0.346431 0.504445 0.790898 104 64 61
0.360643 -0.488179 -3.81029 -0.577407 0.346903 0.739093 103 51 42
0.36847 -0.483469 -3.79586 -0.735052 0.447427 0.509419 95 44 27
0.506735 -0.474874 -3.68649 -0.0344378 0.913741 0.404834 88 101 84
0.519279 -0.476063 -3.66785 -0.0513767 0.894684 0.443735 87 102 77
0.524231 -0.473681 -3.67709 -0.0270504 0.850995 0.524476 79 93 71
0.535006 -0.476302 -3.6687 0.029672 0.840623 0.540808 89 104 79
0.539273 -0.474758 -3.66636 0.368484 0.700086 0.611636 85 100 77
0.559912 -0.470542 -3.67312 -0.545744 0.699291 0.461687 89 96 81
-0.23392 -0.534052 -4.14721 0.218594 0.652186 0.725858 75 83 78
0.00219942 -0.516032 -4.01287 -0.456494 0.449522 0.767817 132 152 160
0.0125931 -0.515526 -4.00412 -0.375119 0.49828 0.781666 148 171 191
0.0250687 -0.513432 -3.97943 -0.391079 0.426848 0.815388 132 156 168
0.0313126 -0.512208 -3.97859 -0.302967 0.502232 0.809922 106 132 133
0.0414659 -0.513041 -3.97818 -0.0112373 0.390325 0.920608 70 96 82
0.0501581 -0.512989 -3.97956 0.192487 0.365652 0.91063 57 80 63
0.112394 -0.518225 -3.96485 -0.132375 0.899435 0.416526 76 80 76
0.161004 -0.508866 -3.9449 -0.195532 0.56582 0.801009 102 90 91
0.15229 -0.514543 -3.94905 -0.702643 0.454295 0.547639 75 71 72
0.16999 -0.508593 -3.93963 -0.301828 0.391641 0.869205 97 78 82
0.177496 -0.509718 -3.94043 -0.561044 -0.0317967 0.827175 99 74 77
0.184027 -0.508699 -3.93529 -0.5755 -0.0744307 0.814408 129 100 100
0.190515 -0.509438 -3.92667 -0.55872 0.372206 0.741144 100 89 87
0.203084 -0.507943 -3.91689 -0.554573 0.493324 0.670135 147 101 102
0.214021 -0.507002 -3.91143 -0.559336 0.503192 0.658742 172 124 130
0.233617 -0.503035 -3.90107 -0.45467 0.136675 0.880111 129 76 79
0.242024 -0.503077 -3.89706 -0.461153 0.228743 0.85733 154 105 110
0.2564 -0.50478 -3.89172 -0.108048 0.244312 0.963658 155 99 102
0.262375 -0.504281 -3.88738 -0.487679 0.344767 0.802063 143 94 99
0.268618 -0.503996 -3.88429 -0.445359 0.160797 0.880795 80 53 58
0.275243 -0.50301 -3.88147 -0.23358 0.534978 0.811935 113 84 87
0.283671 -0.502994 -3.87889 -0.217546 0.560475 0.799088 133 106 111
0.292867 -0.503058 -3.883 0.495839 0.462922 0.734742 114 91 94
0.296085 -0.499892 -3.8575 -0.393357 0.804177 0.445611 120 97 100
0.308014 -0.499038 -3.86381 -0.394561 0.530358 0.750361 91 82 80
0.314485 -0.500693 -3.8588 -0.581399 0.414387 0.700184 80 81 79
0.344981 -0.494236 -3.81193 -0.207753 0.878896 0.429395 78 71 68
0.396878 -0.491989 -3.80109 0.394294 0.71229 0.580668 82 88 74
0.493729 -0.47833 -3.67983 -0.0335211 0.914746 0.402637 83 101 77
0.500296 -0.482465 -3.71963 -0.75853 0.438657 0.481883 87 102 78
0.524326 -0.47982 -3.66392 -0.553042 0.621151 0.555262 95 106 79
-0.254513 -0.54295 -4.12102 -0.601218 0.534657 0.593868 91 125 92
-0.229526 -0.539805 -4.12093 -0.0054695 0.875496 0.483194 80 110 81
-0.00497012 -0.524844 -4.01333 -0.703929 0.401222 0.586093 80 104 85
0.00674457 -0.523583 -3.99982 -0.424272 0.584023 0.692034 114 140 143
0.0185402 -0.521793 -3.98032 -0.449215 0.398968 0.799393 102 130 129
0.0364746 -0.520808 -3.97964 -0.393738 -0.141308 0.908297 68 94 76
0.0552188 -0.519909 -3.97607 0.144446 0.610229 0.778946 58 81 57
0.0691207 -0.520897 -3.93103 -0.528478 0.67961 0.508765 72 91 72
0.142243 -0.519952 -3.95265 -0.35103 0.431794 0.830862 69 67 72
0.161665 -0.515581 -3.92891 -0.645089 0.554697 0.52552 83 79 82
0.17022 -0.51587 -3.92997 -0.528304 0.692713 0.490962 83 82 84
0.193331 -0.518072 -3.92082 -0.562998 0.274458 0.779555 76 69 69
0.204007 -0.517664 -3.91464 -0.753855 0.349666 0.55627 116 87 93
0.215052 -0.516181 -3.90455 -0.533055 0.582165 0.613951 156 110 115
0.232164 -0.514805 -3.89371 -0.553987 0.557181 0.618585 147 98 104
0.240932 -0.516289 -3.89413 -0.691824 0.498629 0.522254 162 114 120
-0.24463 -0.544568 -4.12224 -0.417687 0.723763 0.549276 78 110 75
-0.230923 -0.547956 -4.11357 -0.00260191 0.875643 0.482951 82 115 78
-0.00276012 -0.531078 -4 -0.622403 0.555753 0.551138 74 101 83
0.00890876 -0.532602 -3.99796 -0.378154 0.560038 0.737127 76 104 80
0.0198613 -0.533374 -3.98021 -0.407157 0.458308 0.790049 74 103 68
0.0300974 -0.532773 -3.97068 -0.105042 0.69963 0.706742 76 106 71
0.0477114 -0.530951 -3.97312 -0.732808 -0.0712914 0.67669 64 88 63
0.0804286 -0.520668 -3.91282 -0.11309 0.891856 0.437954 79 100 82
0.100059 -0.522749 -3.92075 -0.417643 0.7246 0.548205 83 104 88
0.110797 -0.523063 -3.91324 -0.416983 0.77608 0.473102 89 110 96
0.136697 -0.52688 -3.94538 -0.163438 0.70652 0.688562 83 96 90
0.162772 -0.525041 -3.91167 -0.703928 0.455673 0.544837 80 95 86
0.18066 -0.52692 -3.91747 0.131883 -0.123712 0.983515 78 94 79
0.189186 -0.527132 -3.91658 -0.509066 0.338103 0.791542 72 90 76
0.197588 -0.527697 -3.91838 -0.770147 0.218607 0.599236 76 91 81
0.20699 -0.528427 -3.91152 -0.774127 0.283876 0.565811 77 94 84
0.215957 -0.524412 -3.90439 -0.771954 0.29681 0.562131 93 93 86
0.225308 -0.520188 -3.89457 -0.59837 -0.0468075 0.799852 126 104 102
-0.244152 -0.551693 -4.10722 0.00279102 0.874915 0.484268 85 116 82
-0.228247 -0.554226 -4.11406 0.0423445 0.848202 0.527978 97 126 94
0.0408598 -0.535144 -3.95692 -0.493241 0.710844 0.501411 90 122 93
0.0481442 -0.533268 -3.94274 -0.347331 0.815793 0.462432 90 125 95
0.0699999 -0.528727 -3.90224 -0.48064 0.724599 0.493905 96 125 98
0.163642 -0.536137 -3.90817 -0.701174 0.463013 0.542194 84 110 87
0.172289 -0.534953 -3.90654 -0.670455 0.520537 0.528707 87 113 92
0.187959 -0.535745 -3.91629 -0.634202 0.578397 0.513074 85 112 91
0.194653 -0.534384 -3.91707 -0.761357 0.324529 0.561263 84 110 92
0.202111 -0.536568 -3.9155 -0.73005 0.414067 0.543668 77 103 84
0.207594 -0.5298 -3.89007 -0.673206 0.523599 0.522148 84 106 92
0.200037 -0.541385 -3.8843 -0.702926 0.470852 0.533097 95 118 91
0.171651 -0.546593 -3.90655 -0.664486 0.531776 0.525044 107 129 103
0.180982 -0.545726 -3.90088 -0.680776 0.50685 0.528816 102 129 97
0.191668 -0.543061 -3.88428 -0.733793 0.40151 0.54803 90 121 88
-0.350939 0.469911 -5.44163 -0.573426 -0.372301 0.729777 99 74 74
-0.340125 0.467471 -5.42196 -0.451737 -0.722682 0.523129 99 73 74
-0.355397 0.459482 -5.46044 -0.745418 -0.319623 0.584973 102 78 76
-0.355397 0.459482 -5.46044 -0.745418 -0.319623 0.584973 102 78 76
-0.320046 0.458004 -5.35826 -0.787097 -0.0690193 0.612956 94 71 68
-0.310428 0.451378 -5.34934 -0.757481 -0.0847085 0.647339 93 69 70
-0.276543 0.44698 -5.31873 -0.760808 -0.038368 0.647842 130 89 89
-0.252945 0.445477 -5.29457 -0.745942 0.211624 0.631495 137 89 88
-0.343499 0.450657 -5.45638 -0.75537 -0.0311146 0.654559 100 78 78
-0.343499 0.450657 -5.45638 -0.75537 -0.0311146 0.654559 100 78 78
-0.331038 0.445014 -5.4289 -0.710074 -0.406323 0.575062 92 66 68
-0.315779 0.441772 -5.34605 -0.702123 0.313158 0.639496 96 64 65
-0.248431 0.43373 -5.29771 -0.706642 -0.440821 0.553474 142 82 77
-0.220786 0.434937 -5.29816 -0.208619 0.764057 0.610488 157 137 136
-0.310202 0.433838 -5.35653 -0.781589 0.0467697 0.622038 96 61 64
-0.300189 0.431809 -5.33863 -0.720101 0.192003 0.666775 95 64 62
-0.247071 0.417958 -5.29593 -0.765503 -0.0603234 0.640599 142 81 73
-0.327189 0.42534 -5.44767 -0.651525 0.408514 0.639242 107 78 78
-0.322893 0.42357 -5.43791 -0.754393 -0.298836 0.584456 108 78 78
-0.310656 0.423233 -5.37346 -0.787243 -0.0117044 0.616532 106 76 76
-0.223829 0.410679 -5.27915 -0.710297 -0.436092 0.552541 135 87 86
-0.335868 0.422888 -5.4566 -0.654481 0.402764 0.639872 107 79 78
-0.292352 0.400889 -5.3304 -0.64494 0.423824 0.635944 105 76 75
0.93414 0.576745 -7.479 -0.745955 0.453927 0.487341 154 120 112
-0.279136 0.387373 -5.31845 -0.635755 0.441133 0.633417 104 77 74
-0.167767 0.383763 -5.29449 -0.0446487 0.806486 0.589565 140 115 117
-0.262924 0.376972 -5.3034 -0.610501 0.477592 0.631818 102 68 73
-0.364563 0.379516 -5.45563 -0.71097 -0.401 0.577685 106 68 70
-0.153812 0.356705 -5.25577 -0.0488955 0.809569 0.584985 176 154 158
-0.253675 0.356875 -5.29951 -0.463844 0.631382 0.621454 99 69 70
-0.235746 0.356408 -5.3029 -0.741087 -0.278696 0.610834 99 66 64
-0.22633 0.351426 -5.29364 -0.734806 -0.292787 0.61183 95 72 75
-0.226637 0.348949 -5.29633 -0.742203 -0.354584 0.568687 96 71 70
-0.260711 0.349813 -5.39425 -0.758739 -0.297499 0.579491 94 78 78
-0.241346 0.344823 -5.29934 -0.668518 0.402534 0.62534 101 73 69
-0.00887528 0.358227 -5.56873 0.789509 -0.0201781 0.613408 152 142 138
0.618106 0.4409 -6.84131 -0.0888202 0.385461 0.918439 157 139 137
-0.3736 0.344563 -5.4657 -0.683656 -0.451125 0.573673 114 80 79
-0.233096 0.328946 -5.29431 -0.64075 0.448662 0.62301 101 76 76
-0.246848 0.343214 -5.37519 -0.692566 -0.307924 0.652331 100 77 76
-0.213092 0.330731 -5.28546 -0.753788 -0.213939 0.621316 96 69 71
-0.16678 0.329519 -5.25105 -0.740946 0.276373 0.61206 121 72 66
-0.167302 0.329313 -5.24913 -0.77204 0.183616 0.608473 122 72 66
0.619825 0.433194 -6.83038 -0.0997231 0.371895 0.922903 165 147 145
-0.225584 0.320321 -5.27902 -0.456188 0.644247 0.613872 104 73 70
-0.277399 0.318894 -5.39808 -0.721333 0.298918 0.624761 108 76 74
-0.261712 0.315516 -5.38994 -0.617203 0.438211 0.653477 110 76 77
-0.247208 0.31922 -5.38686 -0.729398 -0.379977 0.568854 104 74 73
-0.240666 0.309434 -5.37833 -0.706938 -0.429358 0.562041 109 77 75
-0.218899 0.309145 -5.27413 -0.464793 0.639499 0.612379 104 74 73
-0.161519 0.304139 -5.24409 -0.761163 -0.197429 0.61778 139 80 72
-0.144518 0.304781 -5.22371 -0.745466 -0.274535 0.607381 135 84 79
-0.28533 0.311304 -5.40256 -0.78196 -0.00306024 0.623321 112 84 80
-0.262333 0.309098 -5.39098 -0.75677 -0.298281 0.581659 112 76 76
-0.250661 0.309208 -5.3811 -0.754493 -0.309587 0.578702 111 76 76
-0.207346 0.297612 -5.26551 -0.557936 0.557273 0.614943 103 69 67
-0.152648 0.292195 -5.23846 -0.771441 0.0344231 0.63537 144 77 68
-0.129098 0.282253 -5.21981 -0.754381 -0.2435 0.609604 137 79 77
-0.301525 0.284798 -5.4219 -0.666822 -0.488103 0.56312 112 80 75
-0.213656 0.281317 -5.36236 -0.784485 -0.201411 0.58653 107 77 74
-0.183992 0.272906 -5.25344 -0.56889 0.516665 0.639861 99 68 63
-0.197748 0.273321 -5.34627 -0.777938 -0.241689 0.579999 101 74 73
-0.128611 0.26812 -5.21779 -0.776191 -0.087318 0.624423 135 80 76
0.480417 0.335242 -6.45545 0.728226 0.13638 0.671631 165 147 147
-0.34665 0.272673 -5.43895 -0.675729 0.382032 0.63043 116 87 84
-0.291048 0.273106 -5.41909 -0.617264 0.439043 0.65286 109 74 71
-0.199195 0.271793 -5.35022 -0.78719 -0.19645 0.584584 102 73 72
-0.178731 0.263821 -5.25371 -0.64616 0.45734 0.610997 99 66 62
-0.173211 0.255058 -5.2562 -0.664786 0.431693 0.609673 102 68 69
-0.163138 0.255224 -5.25338 -0.771594 0.0185214 0.635846 96 66 64
-0.0924542 0.256193 -5.20732 -0.0941506 0.817581 0.568064 163 136 136
-0.0925258 0.256084 -5.20711 -0.0929226 0.817778 0.567982 163 136 136
-0.0427077 0.259463 -5.30106 -0.0979951 0.818492 0.566099 153 124 129
-0.38807 0.264342 -5.46906 -0.711572 -0.380184 0.590869 116 82 81
-0.377254 0.264752 -5.46255 -0.567438 -0.610415 0.552637 110 74 74
-0.366189 0.265281 -5.46345 -0.557009 -0.59292 0.581538 111 78 77
-0.317563 0.258563 -5.43341 -0.336005 0.724587 0.601726 112 88 86
-0.285838 0.262914 -5.40324 -0.761606 -0.0373293 0.646965 107 64 63
-0.196184 0.258113 -5.34977 -0.691343 -0.149769 0.706834 105 74 74
-0.0647295 0.238017 -5.18429 -0.582317 0.554015 0.594958 166 144 147
-0.316989 0.244728 -5.42643 -0.654898 0.426394 0.623937 109 84 88
-0.168025 0.24135 -5.24377 -0.646098 0.461797 0.607701 95 57 58
-0.168201 0.239623 -5.30894 -0.683448 -0.478129 0.551626 98 63 63
-0.134512 0.232039 -5.2349 -0.775032 -0.112168 0.621887 98 77 85
-0.119401 0.236759 -5.21511 -0.747908 -0.268089 0.607258 138 98 103
-0.0875115 0.232884 -5.19324 -0.729493 -0.384745 0.565519 135 83 80
-0.0873336 0.232739 -5.19294 -0.730631 -0.387679 0.562035 135 83 80
0.716285 0.31232 -6.85294 0.563403 0.416114 0.713742 177 157 157
-0.161718 0.232778 -5.32277 -0.480875 -0.646639 0.59213 105 77 74
-0.0998737 0.216475 -5.20145 -0.749828 -0.354549 0.558617 137 81 81
-0.358763 0.227388 -5.44899 -0.660128 0.41243 0.627799 118 86 86
-0.219635 0.222774 -5.37596 -0.749098 -0.325602 0.576919 109 62 62
-0.165028 0.222135 -5.33873 -0.743883 -0.354417 0.566592 110 79 77
-0.165028 0.222135 -5.33873 -0.743883 -0.354417 0.566592 110 79 77
-0.165028 0.222135 -5.33873 -0.743883 -0.354417 0.566592 110 79 77
-0.086157 0.210339 -5.19504 -0.812641 -0.046791 0.580883 141 76 72
-0.334692 0.211723 -5.43206 -0.754629 -0.0912746 0.649772 111 71 71
-0.216388 0.208017 -5.3616 -0.749045 -0.324008 0.577885 114 82 79
-0.153608 0.205298 -5.3183 -0.433211 -0.724158 0.536585 95 77 81
-0.136772 0.205921 -5.28494 -0.687593 -0.472905 0.550979 101 75 75
-0.143447 0.208439 -5.30518 -0.310474 -0.813517 0.491728 100 79 80
-0.108342 0.19552 -5.24621 -0.00407996 -0.890179 0.455592 113 92 103
-0.0937925 0.197678 -5.23025 -0.690619 -0.474256 0.54601 163 163 173
-0.0847367 0.198942 -5.20245 -0.722805 -0.416922 0.551116 131 80 80
-0.0650161 0.19252 -5.17816 -0.77378 -0.175858 0.608555 144 74 69
-0.0384576 0.192993 -5.16644 -0.337812 0.746183 0.573668 165 138 140
-0.0280257 0.192947 -5.16281 -0.375377 0.726826 0.575166 164 142 144
-0.231969 0.194699 -5.37441 -0.731386 0.30186 0.611519 112 75 74
-0.21867 0.19694 -5.37674 -0.393723 0.705154 0.589694 112 76 76
-0.143419 0.198432 -5.31316 -0.210533 -0.588503 0.780603 96 78 78
-0.127196 0.192415 -5.28669 -0.682964 -0.48083 0.549875 105 64 65
-0.116671 0.194852 -5.27017 -0.0568785 -0.885203 0.461715 101 64 60
-0.102675 0.187995 -5.25651 -0.0506282 -0.885488 0.461896 139 127 149
-0.102675 0.187995 -5.25651 -0.0506282 -0.885488 0.461896 139 127 149
-0.102688 0.187984 -5.25634 -0.052188 -0.885306 0.462071 139 127 149
-0.0783595 0.18328 -5.19372 -0.720215 -0.421572 0.55097 134 102 105
-0.00159287 0.185504 -5.24108 -0.0625101 0.832016 0.551218 163 143 147
-0.253666 0.190879 -5.3888 -0.672332 0.415615 0.612563 112 83 82
-0.170162 0.186175 -5.32775 -0.787487 -0.200743 0.582723 114 75 74
-0.133723 0.176593 -5.31564 -0.497303 0.0691485 0.864817 116 85 83
-0.129945 0.185809 -5.29938 -0.808129 -0.0630959 0.585616 100 59 58
-0.116793 0.186178 -5.29757 -0.199462 -0.849103 0.489121 102 58 56
-0.0909988 0.179584 -5.25439 -0.446604 -0.41576 0.792268 176 191 217
-0.0422587 0.169507 -5.1641 -0.775759 -0.170318 0.60761 134 77 71
-0.0491068 0.177541 -5.16772 -0.786307 -0.0313765 0.617038 137 77 74
0.880003 0.234876 -6.98547 0.695866 0.156937 0.700815 184 163 162
-0.239996 0.179639 -5.38083 -0.716346 0.336315 0.611343 109 73 76
-0.23279 0.177541 -5.37943 -0.681234 0.360571 0.637109 112 72 75
-0.21106 0.176268 -5.35945 -0.779888 -0.215172 0.587772 114 76 77
-0.205805 0.170436 -5.35766 -0.764225 0.0735072 0.640748 108 75 76
-0.175807 0.177065 -5.32767 -0.772681 -0.069584 0.630969 116 82 80
-0.139033 0.166542 -5.31891 -0.65807 0.460596 0.595647 122 91 89
-0.104687 0.170348 -5.29673 -0.736767 -0.306272 0.602804 123 103 112
-0.0929405 0.169149 -5.2757 -0.720311 -0.417499 0.553937 183 200 232
-0.0746206 0.160307 -5.18942 -0.78147 0.0318061 0.623132 174 196 215
-0.0752852 0.166669 -5.19682 -0.732644 -0.323302 0.598924 178 188 205
0.665311 0.208396 -6.55478 -0.0390806 0.452104 0.891109 170 151 154
0.757735 0.209666 -6.70483 -0.160224 0.781088 0.603515 152 130 131
0.759728 0.218719 -6.71847 0.428158 0.624567 0.653144 160 141 139
0.78536 0.213716 -6.72332 -0.452944 0.730432 0.511186 163 145 143
0.772388 0.208878 -6.68556 0.0899031 0.809312 0.580458 150 131 131
-0.213277 0.157723 -5.36222 -0.798985 -0.0634667 0.597993 119 84 84
-0.188742 0.160701 -5.34069 -0.681418 0.415399 0.602589 116 85 83
-0.174442 0.161728 -5.32783 -0.772762 -0.251236 0.582854 117 87 83
-0.164523 0.156693 -5.32019 -0.733759 -0.371233 0.56902 118 88 84
-0.151448 0.156265 -5.31484 0.328577 -0.0981814 0.93936 117 90 86
-0.132584 0.164013 -5.31271 -0.698667 0.396009 0.595854 120 88 87
-0.129707 0.153359 -5.31149 -0.580505 -0.147128 0.800854 116 84 83
-0.0997587 0.16098 -5.29172 -0.780652 -0.0887571 0.618632 164 160 182
-0.0949663 0.151706 -5.28626 -0.782385 -0.0504114 0.620752 187 202 232
-0.0949612 0.15166 -5.28632 -0.782862 -0.0460717 0.620487 187 202 232
-0.0748008 0.148344 -5.19036 -0.787513 0.187174 0.587187 175 197 224
0.366684 0.173117 -5.91741 0.449741 -0.000455607 0.893159 166 146 147
0.519396 0.100448 -4.27607 -0.734576 0.463046 0.49597 222 210 207
0.566539 0.0910199 -4.1972 -0.702245 0.516778 0.489686 215 203 205
0.669469 0.194059 -6.53634 0.711046 -0.211585 0.670556 167 151 155
-0.220255 0.147322 -5.36486 -0.690943 -0.41554 0.591544 125 89 88
-0.170213 0.146529 -5.33503 -0.760779 -0.200764 0.617177 118 80 78
-0.0896753 0.142516 -5.28246 -0.782576 0.0128038 0.622423 183 207 237
-0.0696038 0.144011 -5.17797 -0.702941 0.400676 0.58765 181 198 225
0.252576 0.150306 -5.60215 -0.0732352 0.838681 0.539676 156 142 141
0.555292 0.0830237 -4.1897 -0.62588 0.483321 0.612107 140 134 146
-0.384921 0.143205 -5.46497 -0.550186 -0.615134 0.564716 60 45 45
-0.210185 0.140626 -5.36288 -0.720678 -0.348954 0.599044 120 90 90
-0.157168 0.141935 -5.31938 -0.740662 -0.355031 0.570415 114 81 80
-0.116774 0.134231 -5.30652 -0.777415 0.0468083 0.627244 106 82 80
-0.0602285 0.126261 -5.16907 -0.687471 0.430912 0.58455 178 196 221
-0.0645967 0.128573 -5.17577 -0.70602 0.353149 0.613857 181 199 224
-0.0645967 0.128573 -5.17577 -0.70602 0.353149 0.613857 181 199 224
-0.0097928 0.12172 -5.14381 -0.762565 0.195943 0.616524 144 75 67
-0.00413927 0.12418 -5.1397 -0.787578 -0.106015 0.607027 143 77 75
0.550344 0.0734871 -4.19066 -0.806986 0.3452 0.479178 111 109 122
0.550374 0.0735126 -4.19135 -0.81056 0.337329 0.478749 111 109 122
-0.339968 0.133692 -5.43947 -0.693736 -0.41429 0.589147 98 64 66
-0.214855 0.129071 -5.3609 -0.777049 -0.219793 0.589819 104 62 64
-0.105239 0.120669 -5.29655 -0.781293 0.00132589 0.624163 121 105 115
-0.0552322 0.117482 -5.1732 -0.737093 0.340035 0.584012 182 201 226
0.00171911 0.115252 -5.1367 -0.751064 -0.366609 0.549092 139 76 68
0.00552336 0.111754 -5.13197 -0.782064 0.12603 0.610322 138 76 69
0.403751 0.0699768 -4.25768 -0.281559 0.801437 0.527658 108 107 124
0.534596 0.0662421 -4.14866 -0.795413 0.36642 0.482757 110 103 115
0.584499 0.0615343 -4.11547 -0.611006 0.621489 0.49033 119 107 117
0.590957 0.0624485 -4.10084 -0.702318 0.524717 0.481062 115 106 117
0.598684 0.0642576 -4.09336 -0.239057 0.822082 0.516752 118 106 115
-0.383563 0.127981 -5.46938 -0.654544 -0.476172 0.587225 93 57 58
-0.369509 0.126152 -5.46019 -0.687211 -0.420214 0.592589 94 56 57
-0.359102 0.125546 -5.44154 -0.665672 0.41505 0.620173 95 61 60
-0.221026 0.115082 -5.34443 -0.110079 0.823517 0.556509 115 76 75
-0.120047 0.112164 -5.30465 -0.776733 0.0634721 0.626623 107 70 72
-0.0967704 0.108836 -5.29114 -0.79122 0.0405335 0.610186 191 206 238
-0.0570151 0.102836 -5.15708 -0.752689 0.304602 0.583675 183 202 228
-0.00433016 0.108648 -5.14597 -0.154369 0.817068 0.55549 141 77 63
0.0164155 0.104434 -5.12009 -0.0752873 0.576872 0.813358 139 85 84
0.200396 0.0712204 -4.35543 -0.551447 0.310351 0.774331 121 121 135
0.372725 0.0615709 -4.23204 -0.762727 0.389279 0.516439 101 97 106
0.390264 0.0640736 -4.24324 -0.139008 0.837226 0.528894 102 97 109
0.553397 0.0558109 -4.1311 -0.280799 0.809878 0.515024 124 108 119
0.546834 0.057936 -4.14924 -0.503699 0.70242 0.502885 124 108 119
0.578709 0.0525665 -4.08819 -0.652281 0.579664 0.488383 110 98 107
0.587232 0.0543537 -4.07905 -0.469258 0.728047 0.499744 113 99 109
-0.371584 0.112614 -5.46599 -0.655182 -0.441966 0.612701 90 59 58
-0.0968415 0.0969558 -5.29057 -0.795641 0.034567 0.604782 193 206 238
-0.043339 0.0938241 -5.14614 -0.299369 0.544198 0.783726 184 202 226
-0.0138786 0.0941883 -5.14638 -0.304353 0.279525 0.910623 168 162 175
-0.00351249 0.0980184 -5.14532 0.228881 0.523547 0.820678 145 86 82
0.00769436 0.0907716 -5.13548 -0.0663231 0.790525 0.608828 143 74 69
0.017827 0.094097 -5.12466 -0.679525 0.303631 0.667873 138 78 72
0.278033 0.0567342 -4.29132 -0.349397 0.769312 0.534865 105 96 108
0.306257 0.0542611 -4.27206 -0.273077 0.801945 0.531331 119 104 118
0.32686 0.0540951 -4.25737 -0.389979 0.752761 0.530347 117 103 119
0.339251 0.0541586 -4.25423 -0.364082 0.766452 0.529145 123 109 124
0.343739 0.0582055 -4.2603 -0.17489 0.830245 0.529251 112 100 113
0.349138 0.0536307 -4.24183 -0.115085 0.841479 0.527891 117 102 115
0.371114 0.0530853 -4.23418 -0.50131 0.672661 0.544256 121 105 119
0.381779 0.0527897 -4.22277 -0.546188 0.6468 0.532285 118 102 116
0.390263 0.0555552 -4.22882 -0.132617 0.833528 0.536325 119 104 116
0.403199 0.0479054 -4.08401 0.246516 -0.672237 0.698089 122 106 119
0.490345 0.0500078 -4.14833 -0.239662 0.820058 0.519679 120 104 118
0.502405 0.0485511 -4.13873 -0.193862 0.83169 0.520297 112 99 112
0.561572 0.0464234 -4.09743 -0.261876 0.817068 0.513634 109 95 107
0.567205 0.0471772 -4.09866 -0.333806 0.7931 0.509477 110 97 110
0.570087 0.0448072 -4.07701 -0.287019 0.81003 0.511344 109 97 108
-0.385636 0.0961345 -5.45985 -0.735006 0.143581 0.662684 114 84 86
-0.219218 0.0907616 -5.35653 -0.696947 0.390286 0.601616 116 78 80
-0.0961192 0.0839387 -5.28943 -0.781867 0.0314197 0.622652 194 211 240
-0.0300848 0.0854203 -5.14994 -0.342278 0.27902 0.897214 185 204 230
-0.0190408 0.0856835 -5.15239 -0.599821 -0.0394297 0.799162 184 203 229
-0.00303941 0.087179 -5.14296 0.338665 0.402327 0.850552 140 110 118
0.00958828 0.0763758 -5.13654 -0.237451 -0.249822 0.938726 134 94 91
0.134093 0.0530724 -4.37307 -0.109747 0.83846 0.533798 110 99 113
0.251663 0.0521317 -4.30164 -0.372077 0.756425 0.53794 117 104 119
0.253226 0.050693 -4.30013 -0.198179 0.823036 0.532294 118 105 119
0.264954 0.0501227 -4.28704 -0.246298 0.80968 0.532687 114 102 116
0.268947 0.0485082 -4.28093 -0.191526 0.825449 0.530991 109 96 110
0.284317 0.0484526 -4.27233 -0.101754 0.842909 0.528346 118 106 119
0.305803 0.0457527 -4.25711 -0.631757 0.564534 0.53121 116 102 116
0.316052 0.0468894 -4.25468 -0.632862 0.547115 0.54786 114 100 114
0.343902 0.0495574 -4.23395 -0.135992 0.838689 0.527359 119 103 117
0.366328 0.0450358 -4.21721 -0.16761 0.833966 0.525744 106 92 106
0.475816 0.0454829 -4.15031 -0.143245 0.840668 0.522262 109 94 108
0.478886 0.0434961 -4.14698 -0.156369 0.83456 0.52826 113 98 112
0.490774 0.0420186 -4.13684 -0.185645 0.833849 0.519838 112 98 111
0.502283 0.0403043 -4.12177 -0.120328 0.843119 0.524091 117 104 118
0.511653 0.0369877 -4.10002 -0.119584 0.843229 0.524085 115 102 115
0.553711 0.0385698 -4.08451 -0.452424 0.737004 0.502133 110 98 111
-0.378447 0.088457 -5.45449 -0.649389 -0.480496 0.589422 112 81 84
-0.28544 0.0796733 -5.39067 -0.704175 -0.398198 0.587856 117 80 82
-0.275214 0.0797222 -5.38851 -0.762352 -0.013956 0.647012 117 84 85
-0.265148 0.0856801 -5.38042 -0.738241 -0.3248 0.591189 112 86 86
-0.172619 0.0844408 -5.32822 -0.773648 0.00634356 0.633584 107 75 75
-0.0772932 0.0756979 -5.27364 -0.806337 0.103333 0.58236 195 217 243
-0.0783405 0.0784124 -5.26773 -0.701229 -0.0464723 0.71142 197 219 245
-0.0187748 0.0746372 -5.15766 -0.791634 -0.209046 0.574121 183 199 226
0.00780291 0.0662335 -5.14182 -0.60931 -0.510789 0.606495 108 94 93
0.00480862 0.073684 -5.1356 -0.566932 -0.363314 0.739318 127 102 105
0.132481 0.0439479 -4.34943 -0.0857082 0.843294 0.530575 105 92 106
0.25136 0.0431202 -4.27928 -0.16626 0.831427 0.530177 106 93 107
0.264909 0.041778 -4.2742 -0.206388 0.822402 0.53015 102 89 103
0.269386 0.0410097 -4.26785 -0.0735524 0.843046 0.532789 105 93 106
0.276431 0.0397069 -4.26084 -0.329893 0.780108 0.531603 114 101 116
0.287141 0.0389698 -4.25026 -0.141345 0.837931 0.527156 108 95 109
0.299535 0.0359111 -4.21839 -0.58386 0.614556 0.530498 122 108 123
0.316612 0.035065 -4.22502 -0.0886454 0.844432 0.528277 117 103 117
0.322212 0.0386987 -4.22847 -0.151623 0.836867 0.525989 114 100 114
0.329234 0.0407023 -4.22669 -0.138519 0.839065 0.526101 110 96 110
0.479714 0.036093 -4.13732 -0.646882 0.575417 0.500439 110 98 111
0.501427 0.031895 -4.10545 -0.111848 0.843764 0.52493 106 94 107
0.549966 0.0300203 -4.06626 -0.479294 0.722182 0.498729 107 96 108
0.556023 0.0284362 -4.04049 -0.332304 0.795695 0.506402 101 92 104
-0.327016 0.0719308 -5.42228 -0.647114 -0.4493 0.615933 115 87 85
-0.196262 0.0658519 -5.3535 -0.381394 0.729163 0.568209 107 65 67
-0.186339 0.0655615 -5.34131 -0.56137 0.561921 0.607543 109 62 66
-0.0957258 0.0662373 -5.29306 -0.268054 -0.301288 0.915081 189 209 237
-0.0949147 0.0683335 -5.28647 -0.360638 0.0395985 0.931865 192 216 242
-0.00427874 0.0563936 -5.14769 -0.0741908 -0.447817 0.891042 100 97 98
0.000145714 0.0646465 -5.1389 -0.659396 -0.317534 0.681446 108 111 117
0.07469 0.0364914 -4.34982 -0.064503 0.84567 0.529795 135 134 131
0.277061 0.0280214 -4.22403 -0.0998365 0.845568 0.52445 101 88 102
0.274969 0.0316371 -4.24404 -0.690201 0.489185 0.533217 112 100 115
