ply
format ascii 1.0
element vertex 703
property float x
property float y
property float z
property float nx
property float ny
property float nz
property uchar diffuse_red
property uchar diffuse_green
property uchar diffuse_blue
end_header
-3.20996 -1.74424 -20.8152 -0.519099 0.0573677 0.852787 126 145 157
-3.16174 -1.74569 -20.79 -0.439246 0.0323621 0.897784 125 143 155
-2.95613 -1.73497 -20.6437 -0.543759 0.0195322 0.839014 124 143 156
-2.81089 -1.70493 -20.5499 -0.703798 -0.0340829 0.709582 120 141 156
-2.65553 -1.67135 -20.4583 -0.302438 -0.00740437 0.95314 126 145 159
-2.60324 -1.65386 -20.4217 0.00911129 0.10421 0.994514 126 146 160
-2.37105 -1.63574 -20.2606 0.180288 0.0779199 0.980523 122 141 153
-2.31934 -1.60633 -20.2297 -0.499057 0.0408945 0.865604 122 142 157
-1.87055 -1.54993 -19.918 -0.310255 -0.0175656 0.950491 124 143 155
-1.70891 -1.53333 -19.8168 -0.595493 0.0289821 0.802837 126 145 160
-1.54558 -1.49501 -19.7023 -0.573549 0.151577 0.805026 126 146 161
-3.97732 -1.89259 -20.9881 -0.494056 0.208675 0.844016 62 66 68
-3.98649 -1.89485 -21.0235 -0.492219 0.382958 0.781706 52 56 56
-3.48714 -1.85003 -21.0334 -0.780474 0.0423105 0.623754 71 72 74
-3.42123 -1.84166 -20.9703 -0.715477 0.0924095 0.692498 123 142 155
-3.30876 -1.83229 -20.8804 -0.506742 0.0945841 0.856894 127 146 158
-3.32821 -1.81256 -20.8952 -0.461275 0.0060676 0.887237 128 146 159
-3.30236 -1.79708 -20.8779 -0.527063 -0.00306954 0.849821 127 146 158
-3.28091 -1.81617 -20.8642 -0.532967 0.0818411 0.842169 122 141 153
-3.19812 -1.81496 -20.8048 -0.383134 0.137992 0.913327 127 145 157
-3.18862 -1.79262 -20.8022 -0.54119 0.0132879 0.840796 128 147 159
-3.16233 -1.7775 -20.7902 -0.383189 0.100012 0.918239 124 142 154
-3.13113 -1.77755 -20.7779 -0.292711 0.0907866 0.951881 136 150 158
-3.08915 -1.79945 -20.7454 -0.610888 0.158157 0.775759 120 141 156
-2.97725 -1.75227 -20.6613 -0.521739 0.139305 0.841655 121 140 154
-3.00252 -1.76296 -20.6835 -0.588406 0.0945769 0.803015 120 139 153
-2.93404 -1.75063 -20.6325 -0.590924 -0.0170707 0.806547 124 142 156
-2.95528 -1.7665 -20.6446 -0.545707 -0.0350433 0.837243 124 143 156
-2.90804 -1.75033 -20.6145 -0.468126 0.0139048 0.883552 128 146 160
-2.75277 -1.73558 -20.506 -0.636914 -0.0347397 0.770152 122 143 157
-2.58312 -1.71361 -20.3985 -0.407513 0.0246414 0.912867 121 142 158
-2.31786 -1.66464 -20.2309 -0.480506 0.110034 0.870061 125 145 157
-2.3035 -1.63551 -20.2223 -0.535067 -0.0399692 0.843863 125 145 159
-1.97216 -1.60757 -20.0005 -0.239677 -0.0334128 0.970277 121 141 157
-1.85186 -1.5814 -19.9128 -0.366015 0.00815622 0.930573 124 144 158
-1.73472 -1.54839 -19.8319 -0.556482 0.068942 0.827995 126 145 157
-0.942649 -1.41029 -19.2705 -0.86917 -0.0202139 0.4941 115 130 142
-0.642753 -1.36358 -19.1057 -0.677264 0.0364888 0.734835 119 137 153
-0.40857 -1.36614 -19.1499 -0.244832 -0.785824 0.567924 81 57 49
-0.380499 -1.37185 -19.1703 -0.867031 -0.0960075 0.488917 65 39 29
-0.373661 -1.35751 -19.1359 -0.890316 -0.0511013 0.452467 62 35 26
-0.361264 -1.33539 -19.0907 -0.881855 -0.112344 0.457941 59 37 27
-4.14829 -1.99686 -21.4275 -0.520153 0.233711 0.821474 18 18 13
-4.01883 -1.94981 -21.0301 -0.469765 0.129843 0.87319 17 18 12
-3.99618 -1.92205 -21.0331 -0.360396 0.17683 0.915885 26 26 18
-3.98124 -1.94467 -20.9782 -0.351564 0.206397 0.913128 34 36 32
-3.96754 -1.9147 -20.9253 -0.445109 0.325145 0.834361 47 50 47
-3.98244 -1.92002 -21.0034 -0.492721 0.236742 0.837364 52 55 55
-3.97236 -1.91899 -20.9674 -0.495421 0.326866 0.804808 58 61 61
-3.97667 -1.91714 -20.9618 -0.444546 0.248915 0.860477 53 55 53
-3.95975 -1.91189 -20.8871 -0.449503 0.360051 0.817502 28 28 18
-3.09065 -1.833 -20.7435 -0.581346 -0.015363 0.813511 120 141 156
-3.12071 -1.83582 -20.7627 -0.508109 0.0979472 0.855705 123 143 157
-3.12887 -1.80798 -20.7764 -0.332571 0.163696 0.928763 125 145 160
-3.02476 -1.80322 -20.692 -0.631095 0.00856208 0.775658 124 143 156
-3.04596 -1.81652 -20.7103 -0.594225 -0.0666162 0.801535 120 141 155
-2.97818 -1.78377 -20.659 -0.661739 -0.0129212 0.749623 123 142 155
-2.95885 -1.79777 -20.6401 -0.509438 0.00718305 0.860477 127 145 159
-2.92053 -1.77872 -20.6239 -0.524136 -0.0115475 0.851556 125 143 157
-2.88594 -1.76631 -20.5988 -0.614699 0.000121122 0.788762 126 145 159
-2.7336 -1.75137 -20.49 -0.587678 -0.0111272 0.809018 122 142 156
-2.67002 -1.73006 -20.4492 -0.0458719 -0.162583 0.985628 123 144 159
-2.66932 -1.72944 -20.4503 -0.0771346 -0.176862 0.981208 123 144 159
-2.47819 -1.70017 -20.3363 -0.545575 -0.0102091 0.838 125 144 157
-2.30819 -1.69236 -20.2193 -0.556153 0.11179 0.823527 121 141 154
-2.28169 -1.68144 -20.2041 -0.678486 0.145048 0.720151 124 143 156
-2.26014 -1.66564 -20.1869 -0.570748 0.0832231 0.816897 120 141 155
-2.22065 -1.6705 -20.1525 -0.543508 0.110519 0.832097 123 143 156
-1.98979 -1.64054 -20.0066 -0.609876 0.162351 0.775689 124 144 159
-1.90421 -1.62411 -19.9515 -0.600267 -0.00690486 0.79977 124 144 159
-1.92629 -1.64001 -19.9606 -0.598929 0.0474481 0.799396 122 142 157
-1.8549 -1.62061 -19.9116 -0.493099 -0.0506749 0.868496 118 138 153
-1.8293 -1.60214 -19.8984 -0.521303 0.0898916 0.848624 121 142 158
-1.75778 -1.5809 -19.8492 -0.642133 0.0310452 0.765964 127 145 157
-1.64024 -1.5887 -19.7746 -0.495713 0.0645292 0.866086 125 145 160
-1.61004 -1.58828 -19.7552 -0.50943 0.0742526 0.857302 126 145 157
-1.59606 -1.58537 -19.7515 -0.445213 0.00824887 0.895387 125 145 159
-1.58067 -1.55593 -19.7464 -0.408322 0.0277856 0.912415 121 143 160
-1.61136 -1.55591 -19.7614 -0.38318 0.0177331 0.923503 126 145 158
-0.930881 -1.45728 -19.2385 -0.863556 -0.0564213 0.501086 97 109 120
-0.369394 -1.39654 -19.1711 -0.885341 -0.0483375 0.462423 60 44 36
-0.355853 -1.37901 -19.1536 -0.886916 -0.0798381 0.454979 59 37 27
-4.13878 -2.01951 -21.4078 -0.607604 0.12797 0.783863 17 18 14
-3.9497 -1.95646 -20.8032 -0.530279 0.63615 0.560461 80 81 77
-3.95845 -1.94032 -20.9104 -0.449443 0.227983 0.863727 55 59 57
-3.95384 -1.96453 -20.8906 -0.500177 0.305504 0.810241 52 55 51
-3.94996 -1.95952 -20.8495 -0.502226 0.39144 0.771067 75 77 75
-3.44438 -1.92773 -20.9917 -0.709078 0.409489 0.574044 122 133 142
-3.40506 -1.90489 -20.9831 -0.714447 0.00628852 0.699661 122 140 151
-2.96432 -1.82662 -20.6405 -0.427755 0.0215272 0.903638 127 146 159
-2.92787 -1.84457 -20.6224 -0.426134 0.0482787 0.903371 124 143 156
-2.4174 -1.7406 -20.2817 -0.528124 -0.0809693 0.845298 120 140 156
-2.31252 -1.73998 -20.2183 -0.627807 -0.0396676 0.777358 127 147 160
-2.31994 -1.72033 -20.2274 -0.504032 0.00950702 0.863633 125 144 158
-2.28499 -1.72214 -20.1988 -0.610948 0.0431259 0.790495 123 143 159
-2.26403 -1.70178 -20.1856 -0.54481 -0.0163671 0.8384 119 140 157
-2.23904 -1.71757 -20.1708 -0.480937 -0.0421547 0.875741 126 145 159
-1.94984 -1.65419 -19.9757 -0.566204 -0.00580716 0.824245 117 139 157
-1.9033 -1.65616 -19.9465 -0.590451 -0.0118836 0.806986 123 143 158
-1.92425 -1.67315 -19.9573 -0.602944 0.0289023 0.79726 122 142 157
-1.92545 -1.67221 -19.957 -0.607432 0.0350003 0.7936 122 142 157
-1.87163 -1.65217 -19.9199 -0.481643 -0.0119786 0.876286 115 137 154
-1.87057 -1.65223 -19.9179 -0.434066 0.0250581 0.900532 121 141 156
-1.83796 -1.65185 -19.9039 -0.367391 -0.00899202 0.930023 123 143 159
-1.83927 -1.65208 -19.9027 -0.348295 -0.00154319 0.937384 123 143 159
-1.74083 -1.62179 -19.8325 -0.389458 -0.0373805 0.920285 124 144 157
-1.57247 -1.60096 -19.7313 -0.478635 0.138714 0.866987 127 146 160
-0.367078 -1.43437 -19.1754 -0.867512 -0.0884603 0.489486 104 97 96
-0.337048 -1.43659 -19.1568 -0.896409 0.0166683 0.442914 82 65 60
-3.1394 -1.89857 -20.7623 -0.503886 -0.0137809 0.86366 125 144 157
-3.1163 -1.88049 -20.7461 -0.545704 -0.034672 0.837261 120 141 156
-2.41321 -1.7722 -20.2818 -0.538891 -0.0579512 0.84038 119 139 156
-2.44107 -1.76751 -20.3019 -0.402611 0.0342725 0.914729 121 141 157
-2.39007 -1.78697 -20.2702 -0.62492 -0.0742571 0.77715 120 140 156
-2.31221 -1.77168 -20.217 -0.615479 -0.073544 0.784715 127 146 160
-2.28438 -1.75453 -20.1997 -0.56898 0.00694176 0.822322 127 145 158
-2.24488 -1.74336 -20.1686 -0.450173 -0.0116436 0.892865 126 144 157
-2.21884 -1.72809 -20.1546 -0.62965 -0.0126437 0.776776 119 140 157
-2.15287 -1.74915 -20.1042 -0.699322 0.0593126 0.712342 122 142 158
-1.8211 -1.68335 -19.8977 -0.365835 0.00365592 0.930673 125 145 161
-1.5947 -1.64993 -19.7423 -0.599577 0.0373203 0.799447 125 145 160
-1.33976 -1.58692 -19.5579 -0.31009 0.35182 0.883214 121 140 155
-0.996324 -1.54335 -19.329 -0.746934 0.0260127 0.664389 126 142 153
-0.603143 -1.47006 -19.1648 -0.589698 0.0440216 0.806424 128 145 156
-4.20524 -2.10951 -21.3747 0.142064 0.530804 0.835503 19 19 14
-4.19403 -2.10586 -21.3403 0.142937 -0.296825 0.944174 19 19 15
-4.18406 -2.09176 -21.374 0.166269 0.602771 0.780398 18 18 13
-3.39112 -1.98342 -20.902 -0.746125 0.333081 0.576503 122 139 151
-3.37254 -1.97252 -20.8951 -0.756173 0.300241 0.581427 123 141 152
-3.13561 -1.92989 -20.7604 -0.503978 -0.102299 0.857637 124 143 156
-2.98697 -1.9053 -20.6698 -0.675348 0.00744942 0.737461 127 145 157
-2.96787 -1.92054 -20.6462 -0.548725 -0.0253207 0.835619 127 145 158
-2.81063 -1.89887 -20.5429 -0.586567 -0.0403887 0.808893 120 141 157
-2.81159 -1.89936 -20.544 -0.570145 -0.044585 0.820333 120 141 157
-2.65592 -1.85769 -20.4344 -0.666529 0.0475862 0.743959 127 147 161
-2.66485 -1.86678 -20.4415 -0.505042 0.048306 0.861742 121 142 158
-2.3834 -1.819 -20.2725 -0.587979 -0.119838 0.79995 120 141 156
-2.30625 -1.8022 -20.2125 -0.536054 0.00650672 0.844159 123 144 160
-2.28376 -1.78601 -20.1959 -0.614784 -0.00630331 0.78867 123 143 158
-2.26038 -1.80191 -20.1801 -0.494764 -0.0511853 0.867519 122 142 157
-2.26119 -1.76991 -20.1797 -0.473032 0.0404165 0.880118 125 145 158
-2.06063 -1.75944 -20.0412 -0.819345 -0.051943 0.570943 123 143 159
-1.95038 -1.7413 -19.9715 -0.61198 -0.0657364 0.788137 121 142 158
-1.64807 -1.69933 -19.7719 -0.495128 0.0568051 0.866961 125 146 161
-1.63655 -1.69678 -19.7655 -0.415107 0.124814 0.90117 134 151 162
-1.61121 -1.68169 -19.7515 -0.602968 0.0209378 0.797491 122 143 158
-1.573 -1.66801 -19.727 -0.63936 0.0639031 0.766247 131 150 162
-1.51739 -1.64996 -19.689 -0.519941 -0.0495207 0.852766 132 150 163
-1.11423 -1.60695 -19.4261 -0.606436 0.0690901 0.792125 123 143 158
-1.0141 -1.56144 -19.3494 -0.713209 -0.0126304 0.700838 128 145 156
-0.994144 -1.57743 -19.3291 -0.730221 -0.0227451 0.682832 125 141 152
-0.608984 -1.50466 -19.1574 -0.639328 -0.0184638 0.768712 130 146 156
-0.337703 -1.51567 -19.2448 -0.250568 -0.779018 0.574758 58 40 34
-0.163439 -1.47815 -19.0941 -0.795647 -0.336921 0.503418 75 61 55
-0.15249 -1.45783 -19.1022 -0.828149 -0.304162 0.470803 61 41 31
-4.23014 -2.16465 -21.3431 0.0540152 0.10695 0.992796 34 32 28
-4.26146 -2.16603 -21.351 -0.198765 0.17861 0.963634 21 21 16
-4.2102 -2.13624 -21.346 -0.188115 -0.051627 0.980789 28 27 23
-4.23178 -2.13343 -21.3678 -0.0409048 0.494588 0.868165 22 21 17
-3.93758 -2.06284 -20.9963 -0.744542 0.261586 0.61419 39 40 32
-3.40113 -2.02826 -20.9054 -0.594121 0.305169 0.744239 108 125 133
-3.27278 -2.00646 -20.8728 -0.736181 0.376229 0.562573 117 135 146
-3.04127 -1.97191 -20.6979 -0.452306 -0.0619588 0.889708 120 139 153
-2.94144 -1.9357 -20.6338 -0.444527 0.0768825 0.89246 126 144 156
-2.65053 -1.883 -20.4378 -0.611185 -0.0146944 0.791352 115 137 155
-2.62817 -1.89767 -20.4208 -0.682439 -0.0408782 0.729799 118 139 152
-2.60439 -1.88136 -20.4067 -0.310163 -0.166589 0.935974 114 137 154
-2.58426 -1.86879 -20.3973 -0.310168 -0.0194371 0.950483 116 138 156
-2.41071 -1.83869 -20.2828 -0.401338 0.0141229 0.915821 121 141 157
-2.42335 -1.868 -20.2918 -0.314375 -0.0138673 0.949197 121 141 157
-1.96911 -1.75863 -19.9905 -0.757498 -0.0544737 0.650561 121 142 158
-1.95168 -1.77307 -19.9685 -0.745996 -0.116714 0.655643 121 142 158
-1.80584 -1.74456 -19.8844 -0.440726 0.0591272 0.895692 122 143 159
-1.65692 -1.72569 -19.7808 -0.446652 -0.012011 0.894627 123 143 159
-1.61102 -1.7149 -19.7526 -0.663019 0.0305053 0.74798 123 144 158
-1.58985 -1.69954 -19.7326 -0.796295 -0.0263311 0.604335 132 150 162
-1.48637 -1.70308 -19.6665 -0.43255 0.107148 0.895221 125 145 158
-1.23498 -1.66299 -19.4938 -0.467963 -0.0941073 0.878723 129 146 157
-1.12734 -1.6316 -19.4268 -0.563483 -0.0382783 0.82524 131 148 159
-0.613434 -1.52735 -19.0453 -0.864338 -0.0507086 0.500348 112 130 146
-0.618144 -1.53219 -19.1244 0.0867843 0.0310114 0.995744 129 145 155
-4.29689 -2.19219 -21.328 0.0295865 0.734334 0.678144 25 25 20
-4.2561 -2.19343 -21.3299 -0.412965 0.561924 0.71673 29 28 24
-4.21918 -2.19276 -21.3301 -0.0178976 0.324289 0.945789 42 41 38
-4.14421 -2.18159 -21.2937 -0.0311534 0.809365 0.586479 32 30 28
-2.40831 -1.8982 -20.285 -0.367574 -0.0191048 0.929798 121 140 155
-2.01636 -1.81548 -20.0451 -0.810325 0.0668995 0.58215 118 141 158
-1.99944 -1.83363 -20.0227 -0.777151 0.141357 0.613232 121 141 158
-1.81571 -1.77741 -19.8942 -0.282821 0.0919379 0.954756 124 144 160
-1.80373 -1.78865 -19.8829 -0.405465 0.0834271 0.910295 123 143 159
-1.75486 -1.76687 -19.8464 -0.684371 0.00850931 0.729084 121 142 160
-1.65588 -1.76263 -19.779 -0.58057 0.0212071 0.813934 122 142 158
-1.6134 -1.74679 -19.7499 -0.676027 -0.00799924 0.736834 121 141 156
-1.62992 -1.74723 -19.7642 -0.646774 0.042385 0.761503 123 143 159
-1.514 -1.71467 -19.6761 -0.566232 0.0904988 0.819263 120 141 157
-1.47133 -1.73635 -19.6573 -0.417532 0.0818165 0.904971 125 144 159
-1.1271 -1.66648 -19.4329 -0.558107 -0.187746 0.80825 134 148 157
-0.989687 -1.65044 -19.3255 -0.733533 0.0104795 0.679573 123 138 150
-1.01152 -1.62738 -19.3499 -0.657313 0.0316044 0.752955 127 143 155
-0.962645 -1.62128 -19.2866 -0.843701 0.0522008 0.534269 124 140 154
-4.29262 -2.227 -21.2965 0.113008 0.607346 0.786359 42 43 35
-4.26412 -2.21924 -21.2985 0.0838946 0.656982 0.749224 35 36 29
-4.19965 -2.225 -21.3188 -0.0165522 0.245601 0.96923 30 31 27
-4.17697 -2.20893 -21.2726 -0.120482 0.599299 0.791407 30 29 25
-3.13889 -2.0646 -20.7685 -0.484448 0.0860971 0.870573 119 137 150
-3.00965 -2.01927 -20.6885 0.090149 -0.21579 0.972269 123 142 156
-2.39925 -1.92699 -20.2729 -0.607781 -0.0118104 0.794017 128 146 159
-2.34278 -1.91673 -20.2005 -0.615595 -0.460943 0.639198 121 141 156
-1.99667 -1.86089 -20.0272 -0.80292 0.0548462 0.593558 120 141 158
-1.63326 -1.77993 -19.7624 -0.579048 -0.0325813 0.814642 123 144 160
-1.65696 -1.79764 -19.778 -0.592591 -0.0100348 0.805441 123 143 157
-1.60912 -1.79514 -19.7457 -0.615512 -0.00678211 0.788099 120 140 156
-1.26525 -1.70542 -19.5207 -0.646615 0.0266666 0.76235 117 138 155
-1.24251 -1.72174 -19.5056 -0.475787 0.0420539 0.878555 124 144 158
-1.21816 -1.71415 -19.488 -0.543248 0.00344607 0.839565 119 139 154
-1.18878 -1.71367 -19.4733 -0.345508 -0.00667275 0.938392 122 140 155
-1.06837 -1.69588 -19.3827 -0.55905 -0.0225571 0.828827 124 142 156
-1.00849 -1.6665 -19.3467 -0.631564 0.0125142 0.775223 126 142 154
-0.989611 -1.6831 -19.327 -0.629039 -0.0216154 0.777073 124 140 152
-0.802103 -1.63801 -19.139 -0.874149 -0.048085 0.483271 107 124 137
-0.778347 -1.62049 -19.1297 -0.874562 -0.0531411 0.481993 111 130 144
-4.17228 -2.20912 -20.8247 0.155049 0.511499 0.84518 50 54 32
-4.24823 -2.25424 -21.1465 0.182726 0.574559 0.797805 55 58 35
-4.12559 -2.24461 -21.1746 0.0307007 0.72117 0.692077 48 51 34
-3.99612 -2.21014 -21.1595 -0.679471 0.278461 0.678807 33 35 25
-3.95805 -2.20492 -21.1553 -0.551598 0.382122 0.741433 32 34 22
-2.03153 -1.89319 -20.0358 0.0397711 -0.214312 0.975955 119 140 156
-1.92772 -1.88968 -19.9605 -0.592005 0.0764739 0.802298 122 142 157
-1.82153 -1.84073 -19.8912 -0.814232 0.166088 0.556275 123 143 159
-1.63221 -1.81291 -19.7618 -0.524842 0.0184031 0.851001 123 144 160
-1.65957 -1.83031 -19.7754 -0.489126 0.0185086 0.872017 120 141 158
-1.58765 -1.81118 -19.7273 -0.611612 0.0183036 0.790946 126 145 160
-1.51862 -1.79609 -19.6774 -0.441141 0.0204095 0.897206 122 142 158
-1.50294 -1.79045 -19.6668 -0.360077 0.0591745 0.931044 120 141 157
-1.47146 -1.7908 -19.6552 -0.433661 0.0451584 0.899944 125 144 159
-1.46303 -1.79451 -19.6174 -0.827713 -0.109119 0.550439 124 143 158
-1.20021 -1.7465 -19.473 -0.60828 -0.0507432 0.792099 126 145 157
-1.06683 -1.72914 -19.3831 -0.56164 0.0065286 0.827356 122 140 154
-1.04221 -1.71203 -19.3673 -0.589882 -0.0162194 0.807326 121 139 153
-0.800087 -1.67007 -19.1389 -0.876483 -0.0270947 0.48067 106 123 136
-0.571968 -1.65109 -19.1264 -0.88173 -0.044563 0.469645 112 133 151
0.29958 -1.52768 -18.9983 -0.305905 -0.0394569 0.951244 121 106 95
0.316571 -1.52334 -18.8772 -0.160616 -0.797213 0.581939 131 114 101
0.358798 -1.51718 -18.7468 -0.663452 0.297735 0.686429 94 78 67
0.334168 -1.50079 -18.7549 -0.264782 -0.604407 0.751387 95 76 68
0.361575 -1.51786 -18.7632 -0.694799 -0.164369 0.700169 96 80 68
0.334168 -1.50079 -18.7549 -0.264782 -0.604407 0.751387 115 96 85
0.359828 -1.51684 -18.7544 -0.68019 -0.17929 0.710772 95 79 68
0.388953 -1.48716 -18.7281 -0.879562 0.309599 0.361274 120 103 88
-4.14353 -2.26464 -21.1813 0.0801017 0.728716 0.680116 52 55 35
-4.11308 -2.28098 -21.1513 0.116706 0.578432 0.807339 56 61 39
-3.19613 -2.14353 -20.7487 -0.109048 0.834401 0.540262 48 57 45
-3.16576 -2.11678 -20.7948 -0.0127581 0.740581 0.671846 98 111 116
-2.60548 -2.02662 -20.4143 -0.22273 0.882272 0.414714 124 142 153
-2.31993 -1.97801 -20.2285 -0.750291 -0.215222 0.625094 111 130 142
-2.17947 -1.94543 -20.1234 -0.762132 0.0234838 0.646995 114 133 145
-1.74236 -1.8957 -19.8721 0.0398564 0.636263 0.770442 122 140 155
-1.69874 -1.8719 -19.8045 -0.838617 0.192397 0.509613 120 141 158
-1.63169 -1.8461 -19.7631 -0.533744 0.0361926 0.844871 121 142 159
-1.3641 -1.80525 -19.6035 -0.810859 0.339634 0.476608 123 142 157
-1.22138 -1.7973 -19.4863 -0.611496 -0.0586433 0.789072 123 143 157
-1.02081 -1.72783 -19.3489 -0.686844 0.012362 0.7267 129 144 154
-0.961851 -1.72952 -19.2724 -0.860951 -0.0378169 0.50728 119 137 151
-0.817751 -1.68771 -19.154 -0.871708 -0.0604252 0.486286 95 111 121
-0.801771 -1.70474 -19.1332 -0.873232 -0.0535589 0.484352 101 119 131
-0.593238 -1.6589 -19.081 -0.861966 -0.153092 0.483298 118 136 151
0.328387 -1.60096 -19.2484 -0.572008 0.667774 0.476323 53 38 30
0.345132 -1.5691 -19.0582 -0.61317 -0.606966 0.505585 72 56 44
0.360721 -1.5467 -18.8688 -0.709052 -0.0899825 0.699392 77 63 54
0.40796 -1.52989 -18.7424 -0.809446 -0.378588 0.448852 71 61 48
-3.95986 -2.27003 -21.0786 0.103381 0.58739 0.802674 63 66 38
-3.41135 -2.17943 -20.7629 -0.622929 0.475889 0.620878 55 60 38
-3.20991 -2.17976 -20.7655 0.0931392 0.563988 0.820514 46 53 31
-3.19985 -2.16267 -20.7593 0.0446919 0.660007 0.749929 42 50 31
-3.17554 -2.17259 -20.7244 0.0567412 0.635459 0.770047 47 55 33
-2.73893 -2.08194 -20.4821 -0.603602 0.370907 0.705757 61 73 70
-1.72228 -1.92067 -19.8394 0.173443 0.104758 0.979256 116 136 147
-1.57357 -1.8957 -19.7308 -0.797009 0.371428 0.476254 124 143 159
-1.01387 -1.76632 -19.3479 -0.671888 -0.0721591 0.73713 128 145 156
-0.815146 -1.72213 -19.162 -0.854114 -0.0807183 0.513783 95 110 120
-0.798198 -1.73739 -19.1311 -0.873354 -0.0512997 0.484377 105 123 135
-0.629741 -1.70928 -19.1094 -0.474402 -0.0608255 0.878204 116 138 154
-0.311622 -1.6812 -19.1468 -0.773646 -0.388017 0.500913 76 53 43
0.300678 -1.65196 -19.2473 -0.909696 0.158193 0.383964 50 36 30
0.367465 -1.62746 -19.1406 -0.913465 0.14486 0.38026 46 36 29
0.394523 -1.59308 -19.0009 -0.774381 -0.430868 0.463342 72 61 54
0.374255 -1.58522 -18.9164 -0.779392 -0.422842 0.462334 67 57 49
0.372546 -1.58417 -18.9077 -0.797853 -0.393621 0.45661 66 56 48
0.412869 -1.57321 -18.849 -0.854872 -0.222082 0.468908 47 40 33
-2.80592 -2.11267 -20.2336 -0.754523 0.373483 0.539634 36 45 28
-2.66737 -2.06595 -20.0779 -0.720534 0.462374 0.51676 49 58 37
-2.43181 -2.07398 -20.2124 0.0669703 0.566552 0.8213 49 58 41
-1.73888 -1.95069 -19.8312 0.0694736 0.148621 0.986451 88 93 96
-1.70445 -1.95122 -19.8408 0.173382 0.128611 0.976421 106 119 123
-1.66769 -1.94872 -19.8279 0.137096 -0.0871474 0.986717 112 131 143
-1.5884 -1.92411 -19.7214 -0.78721 0.395747 0.472954 119 140 154
-1.4914 -1.90112 -19.6163 -0.761102 0.449147 0.467965 100 117 125
-1.27325 -1.87065 -19.5317 -0.80682 0.314857 0.499907 117 136 151
-1.24802 -1.85795 -19.4873 -0.81671 0.347759 0.460487 123 143 159
-1.06247 -1.80857 -19.3756 -0.486534 0.00958456 0.873609 122 140 155
-1.03603 -1.80737 -19.3564 -0.703842 0.276381 0.654385 121 139 153
-0.954097 -1.80414 -19.2577 -0.868039 0.0447016 0.494479 119 136 150
-0.814048 -1.75505 -19.1637 -0.813151 -0.238243 0.531061 93 108 117
-0.278959 -1.7331 -19.1839 -0.458692 -0.688569 0.561671 78 62 56
-0.248072 -1.70677 -19.1147 -0.758462 -0.310778 0.572845 66 51 40
-0.256363 -1.69454 -19.1251 -0.827678 0.153606 0.539773 64 46 36
0.317241 -1.66742 -19.2452 -0.852805 -0.0269809 0.521531 49 36 30
0.384057 -1.65962 -19.1061 -0.90884 0.1294 0.396566 50 41 34
-3.15358 -2.12883 -20.0665 -0.37004 0.815708 0.444625 59 65 39
-2.974 -2.18567 -20.4886 0.10891 0.670825 0.733575 51 59 31
-2.80868 -2.11821 -20.2369 -0.738602 0.414037 0.532015 37 46 29
-2.33395 -2.10032 -20.1906 0.153567 0.485313 0.860749 39 50 27
-2.14407 -2.05778 -20.0889 -0.823821 0.187831 0.534825 42 48 32
-1.65874 -1.97559 -19.8173 -0.197605 0.0929438 0.975866 98 113 120
-1.60435 -1.95626 -19.735 -0.781965 0.407887 0.471338 102 119 129
-1.28669 -1.90936 -19.5396 -0.832201 -0.109922 0.54347 101 119 126
-1.26333 -1.89085 -19.5081 -0.835748 0.284581 0.469616 112 131 143
-1.22227 -1.87307 -19.4441 -0.813969 0.358664 0.456963 119 139 154
-0.982087 -1.84207 -19.3394 -0.799074 0.414693 0.435327 128 143 152
-0.570887 -1.77794 -19.1159 -0.87462 -0.045495 0.48267 116 133 150
0.291284 -1.71119 -19.2576 -0.907014 0.177127 0.382035 67 56 48
0.302018 -1.72164 -19.2475 -0.915716 0.0916771 0.391227 50 40 32
0.338159 -1.69477 -19.2163 -0.896842 0.00395369 0.442334 41 31 26
0.383741 -1.69837 -19.1067 -0.679243 0.00700776 0.73388 36 29 23
0.406743 -1.67749 -19.0697 -0.907856 0.195898 0.370704 47 40 32
-2.52618 -2.1161 -20.046 -0.402699 0.297842 0.865519 44 54 31
-2.10734 -2.06898 -20.0479 -0.767047 0.405188 0.497454 41 48 29
-1.52747 -1.95751 -19.6194 -0.649523 0.623597 0.435026 65 76 76
-1.52549 -1.95765 -19.6191 -0.655239 0.611642 0.443347 64 74 73
-1.47674 -1.94931 -19.5548 -0.765246 0.453301 0.457075 42 48 37
-1.28393 -1.94174 -19.54 -0.852692 -0.0605354 0.518894 60 71 68
-1.25887 -1.9132 -19.4846 -0.819143 0.341312 0.46099 100 116 123
-1.23839 -1.90415 -19.4516 -0.847962 0.236428 0.474407 112 130 141
-1.00104 -1.86814 -19.3084 -0.804447 0.402055 0.437283 119 136 148
-0.782026 -1.8557 -19.2267 -0.728158 -0.422237 0.539909 109 126 138
-0.602128 -1.81265 -19.147 -0.838239 0.348287 0.419584 112 131 146
-0.584613 -1.79639 -19.1435 -0.875933 -0.0835431 0.475144 125 141 153
-0.245026 -1.76384 -19.1205 -0.892182 0.171962 0.41766 77 67 61
0.262774 -1.79643 -19.623 -0.911043 0.127347 0.392151 72 57 46
0.359756 -1.7183 -19.1361 -0.718931 0.220474 0.659188 43 36 32
0.576242 -1.67814 -18.9973 -0.0463204 -0.0403067 0.998113 47 40 34
-2.27394 -2.08721 -19.6591 -0.715476 0.450888 0.53366 44 55 29
-1.64251 -2.00572 -19.6807 -0.507457 0.756229 0.413043 32 38 27
-1.56997 -2.01606 -19.641 -0.770361 0.438567 0.46282 44 47 31
-1.58743 -2.03067 -19.6857 -0.849332 0.123485 0.513212 45 48 31
-1.56919 -2.0211 -19.661 -0.844863 0.183714 0.502449 43 48 30
-1.52254 -1.9816 -19.5885 -0.665347 0.593214 0.453222 37 41 30
-1.52465 -2.00902 -19.5858 -0.71337 0.542091 0.444118 38 44 29
-1.28067 -1.95524 -19.5062 -0.856866 -0.0308648 0.514614 35 41 34
-0.791195 -1.87314 -19.2143 -0.781114 -0.334478 0.527243 107 122 133
-0.768655 -1.88936 -19.2277 -0.738044 -0.407228 0.538011 100 114 124
-0.768644 -1.8894 -19.228 -0.739358 -0.404989 0.537897 100 114 124
-0.768642 -1.88941 -19.2281 -0.74095 -0.40291 0.537268 100 114 124
-0.713072 -1.86082 -19.1574 -0.773705 -0.352573 0.526376 103 121 135
-0.253314 -1.80165 -19.0125 -0.876472 0.257211 0.406989 91 89 77
-0.244941 -1.83941 -19.2351 -0.868035 0.266745 0.418764 102 98 86
0.251638 -1.83493 -19.6029 -0.91027 -0.0269508 0.413138 65 54 46
0.373039 -1.76713 -19.1553 -0.892028 -0.0611062 0.44783 38 31 28
0.392163 -1.73803 -19.1112 -0.671875 -0.129897 0.729185 39 33 28
0.558885 -1.70686 -18.997 -0.143293 -0.0374165 0.988973 42 34 29
-2.61466 -2.17256 -19.9532 -0.232896 0.888196 0.396064 61 70 39
-2.39526 -2.13361 -19.6884 -0.72367 0.432201 0.538055 64 72 40
-1.60887 -2.0346 -19.6726 -0.747424 0.481651 0.457569 39 47 30
-1.03502 -1.9425 -19.3357 -0.567859 -0.566254 0.597405 62 71 69
-0.84479 -1.91751 -19.2327 -0.747573 -0.386598 0.54007 88 98 106
-0.778625 -1.90561 -19.2114 -0.794854 -0.306176 0.523893 93 105 114
-0.755497 -1.92425 -19.2412 -0.790127 -0.317568 0.524261 94 102 107
-0.755649 -1.92361 -19.2367 -0.67878 -0.463552 0.56954 88 97 104
-0.718507 -1.8874 -19.1545 -0.720773 -0.434731 0.539903 96 109 119
-0.24967 -1.83545 -19.012 -0.847178 0.333004 0.414001 82 81 62
0.269607 -1.86931 -19.5177 -0.895236 -0.120846 0.428893 95 82 67
0.25038 -1.85008 -19.5499 -0.810131 0.119365 0.573969 84 70 58
0.344623 -1.79954 -19.2038 -0.913548 -0.0349215 0.405229 39 30 29
0.400931 -1.77794 -19.1174 -0.857114 0.0566174 0.512005 40 33 29
0.5423 -1.73638 -19.0033 0.0531564 0.303634 0.951305 56 49 44
-2.54462 -2.22365 -19.9265 -0.707035 0.501833 0.498262 69 77 35
-2.48307 -2.18403 -19.7213 -0.674625 0.497102 0.545685 68 75 40
-2.43228 -2.16582 -19.6986 -0.719347 0.405378 0.5641 65 72 38
-1.75846 -2.05816 -19.4185 -0.427768 0.681301 0.594006 41 52 27
-1.36065 -2.04583 -19.469 -0.0564246 0.63493 0.770507 44 52 28
-1.03572 -1.97144 -19.3542 -0.599056 -0.549514 0.58238 33 38 30
-0.877247 -1.96633 -19.2402 -0.79492 -0.253885 0.55104 52 58 56
-0.836553 -1.95387 -19.2572 -0.680504 -0.462482 0.568353 75 80 82
-0.209631 -1.90019 -19.2189 -0.771802 -0.344928 0.534178 63 61 52
0.268112 -1.89592 -19.5362 -0.913322 0.00567044 0.407198 85 69 59
0.287983 -1.89516 -19.4984 -0.885616 0.188547 0.424422 85 71 60
0.368515 -1.81494 -19.1428 -0.859818 0.0368812 0.509266 34 25 22
0.389894 -1.8345 -19.1314 -0.838811 -0.308747 0.448411 51 45 38
-2.45694 -2.19148 -19.6856 -0.534012 0.508777 0.67526 75 81 43
-1.39559 -2.07716 -19.4224 -0.033953 0.707538 0.705859 49 59 30
-0.541755 -1.93505 -19.1264 -0.851088 -0.188205 0.490131 82 87 86
0.271183 -1.91275 -19.5337 -0.91214 0.123861 0.390716 78 62 52
0.334167 -1.87887 -19.1647 -0.777975 0.526168 0.34337 30 29 28
0.3559 -1.84512 -19.1633 -0.844527 0.403203 0.352424 28 23 20
-1.58052 -2.0907 -19.2025 -0.616985 0.617522 0.487849 65 70 37
-1.45052 -2.07577 -19.1592 -0.198283 0.89589 0.397573 75 79 41
-0.560977 -2.00191 -19.3133 -0.292219 -0.697203 0.654612 46 49 33
0.811247 -1.83182 -18.9347 -0.917741 -0.0203464 0.396657 46 37 31
-0.510964 -1.98783 -19.0452 -0.775285 -0.360085 0.518914 34 43 24
-0.483687 -1.96967 -18.9608 -0.830645 0.384603 0.402627 37 45 30
-0.483687 -1.96967 -18.9608 -0.830645 0.384603 0.402627 37 45 30
-0.406759 -1.96714 -18.8932 -0.835436 0.379072 0.397933 39 46 29
-0.489283 -2.01383 -19.0235 -0.88782 0.150947 0.434731 44 51 27
-0.506108 -2.00874 -18.9485 -0.834794 -0.236014 0.49741 47 54 29
-0.470162 -1.99903 -18.9981 -0.886425 0.159951 0.434358 43 51 28
-0.526713 -2.04992 -19.0686 -0.880675 0.198018 0.430349 48 56 30
-0.475868 -2.03377 -18.9983 -0.843962 -0.213181 0.492221 48 57 27
-0.462274 -2.04717 -18.9674 -0.844314 -0.213379 0.491532 49 58 28
-2.43317 0.563016 -19.321 0.0800731 -0.5585 0.825631 135 92 84
-2.42321 0.627867 -20.4977 -0.392615 -0.0120533 0.919624 128 78 75
-2.82002 0.589779 -21.349 -0.587154 0.585131 0.559349 114 111 123
-2.81939 0.585971 -21.1878 0.0385776 0.400565 0.915456 125 110 116
-2.82009 0.581083 -21.1546 0.0571535 0.4076 0.91137 126 114 121
-2.82017 0.581074 -21.1545 0.0568708 0.408183 0.911127 126 114 121
-2.42088 0.592768 -20.4783 -0.399972 0.0138537 0.916423 123 106 117
-2.18085 0.630138 -20.3986 -0.626874 0.445378 0.639271 119 79 78
-2.12495 0.604653 -20.3565 0.0655603 0.446577 0.89234 117 102 109
-2.52262 0.540395 -20.5391 -0.66965 0.502365 0.54699 107 123 140
-1.35646 0.651081 -20.0601 -0.714082 -0.516396 0.472676 113 103 110
-2.91527 0.495479 -21.1382 -0.775378 0.199484 0.599162 44 47 53
-2.91501 0.495466 -21.1386 -0.769977 0.219198 0.599239 44 47 53
-2.89804 0.528773 -21.1453 -0.67739 0.269006 0.684674 101 117 133
-2.90722 0.527577 -21.1375 -0.679668 0.305393 0.666923 95 113 130
-2.81054 0.497919 -21.0079 -0.5437 0.628433 0.556294 35 42 52
-2.54922 0.515441 -20.3836 -0.658751 0.113111 0.74381 90 100 111
-1.20263 0.575884 -19.4945 -0.676307 0.553194 0.486401 68 74 84
-3.20296 0.437547 -21.21 0.044145 0.430564 0.90148 41 52 67
-3.17735 0.440967 -21.1506 0.20032 0.343148 0.917672 53 54 63
-2.79663 0.490676 -20.8905 -0.132132 0.642258 0.755014 46 45 50
-2.13701 0.485187 -20.1156 -0.800833 0.299614 0.518554 61 63 73
-1.58212 0.524375 -19.6987 -0.861917 -0.195131 0.467998 52 51 60
-1.21114 0.542861 -19.4923 -0.865986 0.206349 0.455509 49 56 68
-1.21197 0.545728 -19.5047 -0.894763 -0.0792057 0.43946 46 52 64
-3.23298 0.404711 -21.2055 -0.0820784 0.520849 0.849693 43 54 71
-2.7579 0.445116 -20.8934 -0.413757 0.511076 0.753397 43 55 72
-2.11994 0.465393 -20.0772 -0.802579 0.297543 0.517044 45 58 76
-2.08023 0.465139 -20.022 -0.756014 0.398983 0.518898 43 56 74
-1.75412 0.499098 -19.8053 -0.693542 0.510059 0.508762 51 59 73
-1.7145 0.496292 -19.8117 -0.834083 0.251759 0.490839 52 59 73
-1.6898 0.493933 -19.7986 -0.822554 0.2867 0.49113 47 55 72
-1.68129 0.496727 -19.803 -0.826632 0.276624 0.49006 46 55 72
-1.65033 0.486221 -19.7124 -0.698739 0.509496 0.502174 48 59 77
-1.23176 0.527421 -19.5234 -0.873661 0.0133621 0.486352 43 53 69
-1.2216 0.511862 -19.4951 -0.841323 -0.157843 0.516973 44 56 74
-1.07971 0.532024 -19.3779 -0.859065 0.246031 0.44886 50 58 73
-2.56967 0.398364 -20.3728 -0.695319 0.469747 0.543938 45 57 74
-1.66796 0.445167 -19.7872 -0.87962 0.00853513 0.4756 75 67 71
-1.64531 0.457735 -19.7697 -0.877024 0.0565678 0.477105 68 66 72
-2.57067 0.379591 -20.3416 -0.251421 0.687889 0.680879 39 48 61
-2.16276 0.384393 -20.0995 -0.564066 0.16099 0.809884 29 38 50
-1.64989 0.424703 -19.7629 -0.864711 0.146311 0.480488 66 55 56
-3.19221 0.284241 -20.6906 -0.654874 0.455061 0.603374 49 56 69
-1.54768 0.411661 -19.6708 -0.778799 0.0641089 0.623989 53 50 55
-3.63566 0.206761 -21.0356 0.160343 0.0790126 0.983894 43 53 65
-1.22713 0.352185 -19.5463 -0.867879 -0.233299 0.438587 53 62 76
-1.11842 0.377403 -19.4551 -0.789706 0.346135 0.506512 43 54 74
-0.744421 0.377893 -19.2253 -0.835646 -0.373488 0.402744 49 55 70
-3.2059 0.165086 -20.7452 -0.338816 -0.787574 0.514714 67 60 47
-2.14501 0.238737 -19.5565 -0.720118 -0.488681 0.492566 58 53 51
-1.96833 0.252354 -19.8794 -0.717592 -0.502443 0.482299 77 63 49
-0.756094 0.352485 -19.289 -0.780596 -0.475065 0.406182 63 60 62
-3.73767 0.114943 -21.0478 -0.583112 0.150321 0.798363 66 60 53
-2.95381 0.164383 -20.7056 0.119728 0.0594452 0.991025 82 74 64
-2.89234 0.17426 -20.668 -0.600777 0.5498 0.580333 77 69 57
-2.74184 0.188287 -20.5621 -0.00951844 0.467009 0.884201 71 63 49
-1.81257 0.248128 -19.8156 -0.553942 -0.668579 0.496136 87 68 46
-1.70699 0.257261 -19.8168 -0.777022 -0.420195 0.468694 88 67 47
-1.59004 0.254623 -19.788 -0.683344 0.367574 0.630817 69 61 48
-3.71189 0.0771503 -21.6203 -0.675046 -0.163367 0.719461 176 159 137
-3.46571 0.0983161 -20.9142 -0.359814 -0.7696 0.527494 110 111 111
-3.42303 0.107917 -21.0489 -0.737109 -0.367574 0.567062 106 109 108
-3.30251 0.108089 -20.9414 -0.812441 -0.115594 0.571469 111 111 113
-3.19146 0.125287 -20.8661 -0.687062 -0.471845 0.552548 105 104 102
-2.72787 0.14798 -20.5264 -0.794298 -0.229687 0.562436 110 108 105
-2.68255 0.138533 -20.4861 -0.374125 0.064866 0.925107 114 116 117
-2.70482 0.139117 -20.5071 -0.658075 -0.216529 0.721147 113 115 115
-2.66533 0.166831 -20.4831 -0.34792 0.0484929 0.936269 97 91 83
-2.16117 0.17174 -19.6209 -0.367521 0.0781845 0.926723 119 107 97
-1.5901 0.222141 -19.7718 -0.5191 -0.0402426 0.853766 111 100 89
-2.64437 0.107828 -20.4773 -0.686457 0.0343834 0.726357 123 129 133
-2.65621 0.124971 -20.5017 -0.807617 0.0131752 0.58956 120 124 127
-2.61358 0.106953 -20.4323 -0.764145 0.279729 0.581235 125 131 136
-2.54814 0.102153 -19.5114 -0.761157 0.365868 0.53552 122 128 133
-2.06202 0.158735 -20.085 -0.504569 -0.0105953 0.863307 114 120 126
-1.60404 0.195617 -19.7952 -0.372557 0.0115919 0.927937 131 126 119
-2.60358 0.0833372 -20.4025 -0.756116 0.375867 0.535736 128 135 141
-2.54895 0.0972868 -20.397 -0.780072 0.238947 0.578266 128 134 141
-2.53925 0.0769546 -20.3864 -0.780619 0.239193 0.577425 128 137 144
-2.51734 0.096883 -20.3589 -0.810354 0.24686 0.531401 124 131 138
-2.43521 0.094983 -20.3177 -0.247769 0.112663 0.962246 127 135 142
-2.38842 0.0919888 -19.8019 -0.724586 -0.461123 0.512191 124 132 138
-2.34518 0.110904 -19.6948 -0.60621 -0.350001 0.714149 121 129 135
-2.35698 0.110417 -19.7482 -0.665014 -0.37535 0.645654 118 128 136
-2.36329 0.0865904 -19.7071 -0.729704 -0.454254 0.511062 124 134 141
-2.36329 0.0865904 -19.7071 -0.729704 -0.454254 0.511062 124 134 141
-3.77066 -0.0344454 -21.6559 -0.485006 -0.425652 0.76393 102 80 69
-2.40167 0.0816023 -20.2873 -0.703792 0.389468 0.59413 128 137 144
-1.78177 0.126024 -19.8863 -0.831812 0.264678 0.487888 140 142 144
-1.76877 0.105809 -19.8734 -0.818659 0.30364 0.487442 133 140 145
-3.75999 -0.0637117 -21.6462 -0.507167 -0.188988 0.840872 145 113 97
-3.76002 -0.0614352 -21.6398 -0.491139 -0.225649 0.841347 145 112 97
-3.72544 -0.0754068 -21.4908 -0.538033 0.398363 0.742851 160 129 114
-3.30424 -0.0473448 -20.9423 -0.729014 0.0260547 0.684003 128 140 149
-3.05443 -0.00525527 -20.7819 -0.384428 0.0613084 0.921117 129 141 150
-2.08069 0.0587406 -20.1019 -0.839971 0.200494 0.504232 130 142 152
-1.69874 0.0761944 -19.8228 -0.847599 0.224943 0.4806 130 139 148
-3.01917 -0.0659907 -20.7362 -0.719486 -0.0572083 0.692147 132 144 155
-3.00194 -0.0496221 -20.7168 -0.639027 -0.0670536 0.766256 131 143 154
-2.96844 -0.0525648 -20.6853 -0.47846 -0.0104697 0.878047 131 143 155
-2.91876 -0.05414 -20.6579 -0.515779 0.054615 0.854979 132 143 155
-2.87223 -0.0547973 -20.6266 -0.689753 0.0233835 0.723667 130 141 153
-2.80131 -0.0260311 -20.5261 -0.776569 0.22193 0.58965 130 143 154
-1.07657 0.0872549 -19.4091 -0.768048 -0.000816971 0.640392 131 142 153
-3.27134 -0.107999 -20.8981 -0.768018 0.162315 0.619517 131 143 154
-2.9696 -0.083814 -20.6856 -0.521361 0.0375006 0.852512 130 143 157
-2.91934 -0.0880835 -20.6572 -0.543812 0.155808 0.824616 130 143 157
-2.89313 -0.0700047 -20.6445 -0.735238 -0.0141642 0.677661 133 145 157
-2.67643 -0.0673982 -20.4727 -0.80033 0.265897 0.537374 131 142 153
-1.99854 0.00161555 -19.9948 -0.7597 -0.423136 0.493773 131 142 153
-1.97782 -0.00733836 -20.0383 -0.812719 -0.309927 0.493389 131 143 153
-1.93388 0.00935404 -19.9912 -0.784753 -0.302659 0.540888 126 141 154
-1.07903 0.0793922 -19.4249 -0.799983 0.0307022 0.599236 126 139 151
-3.05386 -0.114011 -20.7499 -0.676944 -0.125041 0.725335 132 145 156
-2.89582 -0.108934 -20.6344 -0.457023 0.00606328 0.889434 132 145 159
-2.86646 -0.108928 -20.6198 -0.448943 -0.0174727 0.89339 130 143 154
-1.9661 -0.0382776 -20.0292 -0.832549 -0.25156 0.493538 131 142 154
-1.5901 -0.0192466 -19.7743 -0.607711 0.008438 0.794114 132 148 159
-1.03356 0.029962 -19.3283 -0.709725 0.4888 0.507311 116 125 134
-3.43839 -0.189195 -20.9814 -0.0318383 0.0253074 0.999173 128 143 156
-3.26793 -0.197718 -20.9001 -0.672803 0.0735326 0.736158 130 145 161
-1.97933 -0.0583306 -20.049 -0.269836 0.189751 0.944025 131 143 155
-1.93568 -0.0808149 -20.0059 -0.835112 -0.0415242 0.548511 128 143 158
-1.6157 -0.0363086 -19.7914 -0.561464 0.0094626 0.827447 139 152 162
-1.36339 -0.0200997 -19.5801 -0.681892 -0.567772 0.46115 132 144 159
-1.15696 -0.0166912 -19.4794 -0.530369 0.0250797 0.847396 137 148 156
-1.03746 0.0121239 -19.2917 -0.90196 0.0408107 0.429888 111 119 127
-3.54634 -0.240469 -21.0219 -0.764181 -0.272428 0.584646 100 83 81
-2.82256 -0.198326 -20.588 -0.520837 0.0581857 0.851671 131 144 157
-2.68687 -0.172734 -20.4865 -0.658411 -0.53011 0.534301 128 144 158
-2.63038 -0.171498 -20.4623 -0.608877 0.00697737 0.793234 132 146 158
-2.13659 -0.126364 -20.132 -0.471896 0.051444 0.880152 133 147 161
-1.77748 -0.0903629 -19.8952 -0.455069 0.0524367 0.888911 131 147 161
-1.30176 -0.0577885 -19.5785 -0.373643 0.00242154 0.92757 129 144 157
-3.41592 -0.254784 -20.9939 -0.552611 0.0417293 0.832394 132 146 158
-3.2527 -0.257091 -20.8631 -0.410763 -0.0296697 0.911259 131 146 160
-3.17262 -0.242814 -20.8175 -0.550668 -0.00941825 0.834671 131 146 160
-2.93673 -0.229179 -20.6657 -0.50794 0.0243617 0.861048 133 145 158
-2.82392 -0.230453 -20.5873 -0.513353 -0.0199928 0.857945 132 144 155
-2.82385 -0.230965 -20.587 -0.516529 -0.0205093 0.856024 132 144 155
-2.72318 -0.21635 -20.5197 -0.491466 0.0635942 0.868572 134 148 159
-2.6556 -0.188032 -20.4772 -0.683762 -0.0230028 0.729343 130 147 161
-2.67864 -0.213085 -20.4878 -0.518627 -0.0428213 0.853927 128 146 161
-2.63516 -0.20322 -20.459 -0.651616 -0.0303318 0.757943 128 145 160
-2.42613 -0.180897 -20.3231 -0.594627 0.0336604 0.803297 132 148 162
-2.2314 -0.161482 -20.1969 -0.527893 -0.0621001 0.847037 133 147 161
-2.20188 -0.161677 -20.1773 -0.505355 -0.0124597 0.862821 137 149 161
-2.11856 -0.157191 -20.1247 -0.4402 -0.0436371 0.896839 141 152 162
-1.77625 -0.119244 -19.8925 -0.440857 0.0742813 0.894498 131 147 162
-1.69139 -0.124135 -19.8372 -0.608266 -0.0170435 0.793551 132 146 160
-1.66655 -0.127046 -19.8187 -0.644606 -0.054132 0.762596 127 143 157
-1.62204 -0.121651 -19.7846 -0.541573 -0.132951 0.830074 139 151 160
-1.25969 -0.0891848 -19.5481 -0.492922 -0.0280606 0.869621 124 141 157
-1.01565 -0.0658882 -19.401 -0.8023 0.0381062 0.595703 125 137 147
-1.02137 -0.0495786 -19.3678 -0.83114 0.0864026 0.549309 123 134 144
-3.29069 -0.311581 -20.9194 -0.59604 0.0364999 0.802125 132 145 158
-2.9615 -0.275803 -20.6811 -0.517311 0.012367 0.855708 133 146 159
-2.91121 -0.246203 -20.654 -0.714352 0.0864539 0.694425 134 146 159
-2.79318 -0.264545 -20.5639 -0.639788 -0.0221574 0.768232 124 142 159
-2.69536 -0.230206 -20.5071 -0.534168 0.0791626 0.841664 134 148 160
-2.66196 -0.220745 -20.4726 -0.614628 0.0232607 0.788474 130 147 162
-2.31563 -0.206614 -20.2454 -0.584945 0.0874727 0.806342 137 150 162
-2.05287 -0.187127 -20.0826 -0.37863 0.00781811 0.925515 133 147 161
-1.77764 -0.154447 -19.8924 -0.542972 0.0194056 0.839527 133 148 162
-1.63773 -0.143539 -19.8038 -0.533522 -0.128777 0.835925 131 145 157
-1.23649 -0.103781 -19.5298 -0.623411 -0.0542107 0.780013 128 143 157
-1.02043 -0.0818316 -19.3688 -0.836851 0.0995747 0.538299 117 131 144
-2.96194 -0.308035 -20.6818 -0.518722 0.00921014 0.854893 133 146 158
-2.43742 -0.242713 -20.3226 -0.522637 0.0618204 0.850311 133 149 163
-2.31859 -0.238885 -20.2445 -0.611508 0.0655686 0.788517 121 139 158
-1.95056 -0.205248 -20.0214 -0.515423 0.0769568 0.853473 132 145 159
-1.92041 -0.193986 -19.9714 -0.867701 0.00371535 0.497072 131 146 163
-1.55535 -0.182458 -19.744 -0.615153 0.0353558 0.787614 130 144 158
-1.41942 -0.169388 -19.651 -0.486707 -0.0056158 0.873547 128 144 159
-3.55675 -0.40451 -21.088 -0.742645 -0.165889 0.648814 76 52 47
-3.28741 -0.372426 -20.9176 -0.530324 0.0936078 0.842611 128 144 159
-3.08055 -0.356496 -20.7596 -0.379853 0.000920415 0.925047 133 146 158
-2.96205 -0.342652 -20.6797 -0.60637 -0.00731829 0.795149 133 146 158
-2.4392 -0.275375 -20.3215 -0.511708 0.00486715 0.859146 130 145 158
-2.41648 -0.293666 -20.3069 -0.5618 -0.0148022 0.827141 133 148 161
-2.27763 -0.271517 -20.2184 -0.546109 -0.0101625 0.837653 136 150 161
-2.27778 -0.268759 -20.2185 -0.546173 -0.0113778 0.837595 136 150 161
-1.925 -0.224629 -19.9872 -0.837542 -0.0406799 0.544856 131 147 163
-1.88217 -0.229394 -19.9722 -0.45393 -0.0715175 0.888163 140 152 162
-1.79386 -0.222067 -19.8884 -0.868548 0.113769 0.482369 140 153 163
-1.03232 -0.164196 -19.3775 -0.870927 -0.0444708 0.489396 127 139 151
0.109337 -0.0675037 -20.078 -0.932151 -0.0617143 0.35677 133 124 121
0.101714 -0.0728855 -20.2034 -0.837298 -0.178128 0.516916 164 162 165
-3.51672 -0.419684 -21.0016 -0.748127 -0.0131378 0.663426 126 122 124
-2.98691 -0.358611 -20.6925 -0.342455 0.0724609 0.936736 131 144 157
-2.95622 -0.374974 -20.6802 -0.407979 0.0817688 0.909322 133 147 159
-2.66926 -0.341767 -20.4663 -0.431182 0.0671956 0.89976 134 149 164
-2.64129 -0.357541 -20.4551 -0.295542 0.0165317 0.955187 136 152 166
-2.6149 -0.341082 -20.4426 -0.448905 0.0312742 0.893032 139 153 164
-2.20356 -0.283002 -20.1721 -0.56671 -0.013243 0.823811 130 146 160
-1.78812 -0.253817 -19.8914 -0.618656 0.0270619 0.785195 133 148 161
-1.05936 -0.17999 -19.3773 -0.899585 -0.0632411 0.432142 129 141 153
-1.00985 -0.195729 -19.3925 -0.847625 -0.00581657 0.530564 126 138 149
0.0866488 -0.104612 -20.125 -0.916104 -0.0386399 0.399074 164 161 164
0.115574 -0.103709 -20.1019 -0.92351 -0.0464124 0.380756 139 133 131
0.095226 -0.0841905 -20.1025 -0.93344 -0.0259497 0.357793 161 158 159
0.111774 -0.106511 -20.1632 -0.918535 -0.0328519 0.393972 163 159 161
-3.57487 -0.455629 -21.1228 -0.801018 -0.103495 0.589626 79 54 47
-2.62693 -0.388171 -20.4477 -0.512982 0.0175832 0.858219 134 149 164
-2.58518 -0.359274 -20.4059 -0.844198 -0.044808 0.534156 140 154 165
-2.30159 -0.342849 -20.2301 -0.448689 0.0434805 0.89263 137 151 164
-2.24933 -0.346612 -20.2036 -0.552215 0.0457017 0.832448 133 148 161
-2.11938 -0.324719 -20.1174 -0.522731 0.0361011 0.851733 134 149 162
-1.78715 -0.285589 -19.89 -0.647905 0.0361268 0.760864 133 148 161
0.0871475 -0.140609 -20.1217 -0.914195 -0.0483273 0.402382 161 161 165
0.0979671 -0.123809 -20.2156 -0.930664 -0.0690787 0.359296 162 162 165
0.105633 -0.122341 -20.1373 -0.92392 -0.0263655 0.381677 162 158 163
0.12247 -0.124326 -20.096 -0.915566 -0.115823 0.385129 123 115 111
0.13147 -0.121165 -20.0922 -0.918923 -0.0519265 0.391003 106 93 86
-3.56919 -0.506568 -21.1311 -0.806463 -0.0548088 0.588739 72 51 41
-3.25362 -0.484818 -20.8672 -0.618205 -0.00743685 0.785982 129 144 159
-2.60413 -0.406108 -20.431 -0.63738 0.0107327 0.770475 140 154 165
-2.58805 -0.422962 -20.4085 -0.836746 0.135925 0.530454 132 146 160
-2.5844 -0.391487 -20.4073 -0.845782 0.0249182 0.532947 141 155 165
-2.53661 -0.403092 -20.3909 -0.601544 0.0706393 0.79571 131 147 161
-2.49216 -0.403648 -20.3566 -0.552938 0.0864554 0.828725 131 146 159
-2.4644 -0.389027 -20.3417 -0.543445 0.0647133 0.836947 132 147 161
-2.44237 -0.407902 -20.3293 -0.544548 0.0603281 0.836557 135 149 160
-2.40506 -0.379923 -20.3025 -0.561051 0.0640044 0.825303 137 151 162
-2.25429 -0.379059 -20.2021 -0.560371 0.025205 0.827858 132 148 161
-2.22678 -0.364706 -20.1884 -0.636425 0.0982684 0.765053 131 146 160
-2.18069 -0.364985 -20.1576 -0.547411 0.0507145 0.835325 133 148 162
-2.13069 -0.369419 -20.1262 -0.575456 0.0473633 0.81646 136 150 161
-2.10462 -0.376297 -20.0961 -0.632599 0.0551261 0.772515 133 149 162
0.088621 -0.176848 -20.1238 -0.912206 -0.0618346 0.405038 161 161 165
0.0894186 -0.176466 -20.124 -0.912728 -0.057704 0.404473 161 161 165
0.106455 -0.158452 -20.136 -0.917583 -0.0480768 0.394626 162 160 164
-3.55519 -0.540834 -21.0488 -0.8049 -0.0714326 0.589095 67 55 50
-2.49388 -0.435309 -20.3571 -0.591151 0.0456441 0.805268 131 146 159
-2.51784 -0.449757 -20.3744 -0.678687 0.0471436 0.732913 137 151 162
-2.40833 -0.41181 -20.3037 -0.560837 0.108874 0.820737 135 151 163
-2.17837 -0.397465 -20.161 -0.544228 0.0249407 0.838566 136 150 161
-2.07208 -0.392694 -20.0883 -0.41453 0.0560256 0.908309 136 150 161
-2.00502 -0.376516 -20.0359 -0.585274 0.0276738 0.810364 125 141 158
-1.22319 -0.320353 -19.5207 -0.641165 -0.0212173 0.76711 130 144 157
-1.20162 -0.30315 -19.5025 -0.385835 0.00103209 0.922567 128 142 155
0.0912818 -0.212262 -20.1215 -0.914623 -0.0445463 0.401847 161 161 165
0.0897034 -0.212489 -20.12 -0.914675 -0.0442601 0.401759 161 161 165
0.0906026 -0.212627 -20.1209 -0.914807 -0.0434862 0.401543 161 161 165
0.108067 -0.194403 -20.1343 -0.920373 -0.0323698 0.389699 161 159 164
0.11876 -0.211574 -20.0789 -0.933844 0.036611 0.355803 124 118 116
0.103917 -0.212326 -20.1462 -0.928321 -0.0955727 0.359286 161 160 165
-3.65356 -0.620562 -21.8525 0.182766 0.0410118 0.982301 70 70 64
-3.63601 -0.620923 -21.841 0.234258 0.0423778 0.97125 45 43 40
-3.16589 -0.542195 -20.8209 -0.279026 0.0369768 0.959571 139 152 164
-3.06991 -0.529141 -20.7522 -0.282071 0.0154753 0.959269 133 148 161
-2.9259 -0.507541 -20.6481 -0.648992 0.0517249 0.759035 134 148 161
-2.92693 -0.525231 -20.6588 -0.65697 0.00904175 0.753863 134 148 161
-2.52218 -0.483042 -20.3753 -0.564479 0.0128432 0.825348 134 151 163
-2.5464 -0.466618 -20.3897 -0.488409 0.12896 0.863033 132 147 161
-2.49586 -0.467305 -20.3589 -0.593734 0.0473853 0.803265 130 146 159
-2.2218 -0.443545 -20.1802 -0.543555 -0.018651 0.839166 133 148 159
-1.8746 -0.413924 -19.9584 -0.502684 0.0512592 0.862949 133 149 162
-1.74943 -0.402886 -19.8795 -0.371858 0.0433695 0.927276 130 146 160
-1.71938 -0.37946 -19.8475 -0.510447 -0.140732 0.848315 130 146 158
-1.59616 -0.381613 -19.7646 -0.597706 -0.0312503 0.801106 129 146 161
-1.25059 -0.334824 -19.5361 -0.458325 0.0759744 0.885531 141 152 161
0.0925738 -0.248089 -20.1186 -0.919494 -0.0205627 0.392567 161 160 165
0.0909438 -0.248309 -20.1168 -0.919296 -0.0211369 0.392999 161 160 164
0.108816 -0.230401 -20.1311 -0.921882 -0.0375122 0.385651 161 159 164
0.105069 -0.229609 -20.0958 -0.924476 -0.00792968 0.381158 157 155 159
-3.60529 -0.656193 -21.8172 0.0849594 0.0798807 0.993177 101 104 109
-3.62084 -0.655923 -21.8355 0.13392 0.0921962 0.986694 76 76 79
-3.61772 -0.62128 -21.8257 0.143011 0.0574745 0.988051 97 97 98
-3.24501 -0.569675 -20.8524 -0.271614 0.0503887 0.961086 134 149 162
-3.24673 -0.570063 -20.8513 -0.314052 0.0401087 0.948558 133 150 165
-3.06415 -0.573587 -20.7423 -0.511892 0.0493516 0.857631 133 148 161
-2.64241 -0.508509 -20.454 -0.476249 -0.0478657 0.878007 131 148 163
-2.29321 -0.477613 -20.2192 -0.458035 0.000588382 0.888934 133 149 162
-1.87461 -0.446161 -19.96 -0.465027 0.0755138 0.88207 137 151 162
-1.88883 -0.432905 -19.9646 -0.496945 0.105212 0.86138 131 147 160
-1.06239 -0.364678 -19.4001 -0.699221 0.0249028 0.714472 128 142 157
0.0933341 -0.284051 -20.1184 -0.913509 -0.0504724 0.403675 160 160 165
0.0919308 -0.284279 -20.1178 -0.91401 -0.0467903 0.402984 160 160 165
0.105332 -0.265808 -20.0908 -0.933519 0.0150086 0.358213 156 154 159
0.104538 -0.266078 -20.0941 -0.933596 0.0153444 0.357999 157 155 160
-3.612 -0.691429 -21.7865 0.0499253 0.163313 0.98531 93 98 104
-3.6179 -0.691077 -21.8175 0.0950826 0.0927563 0.991139 77 79 84
-2.42375 -0.532537 -20.3127 -0.506762 0.0462286 0.860846 130 148 163
-2.39954 -0.516756 -20.2964 -0.526481 -0.0387429 0.849304 131 149 164
-2.19196 -0.49092 -20.1695 -0.395638 0.0155476 0.918275 136 150 161
-2.12016 -0.503036 -20.1079 -0.523862 0.0619618 0.849547 125 144 160
-1.24845 -0.40419 -19.5337 -0.416324 0.0612624 0.90715 132 148 163
-1.05104 -0.38478 -19.3785 -0.635652 0.105693 0.764706 126 141 155
0.0951847 -0.319869 -20.1176 -0.911763 -0.0664459 0.405305 159 159 164
0.0935579 -0.320096 -20.1165 -0.912021 -0.0628753 0.405295 159 159 164
0.10733 -0.301319 -20.0929 -0.932656 0.0144818 0.360477 157 155 159
0.106616 -0.301675 -20.0973 -0.932011 0.013363 0.362184 158 156 160
-3.59897 -0.726889 -21.684 -0.141056 0.257603 0.955899 88 94 101
