ply
format ascii 1.0
element vertex 694
property float x
property float y
property float z
property float nx
property float ny
property float nz
property uchar diffuse_red
property uchar diffuse_green
property uchar diffuse_blue
end_header
0.253027 -0.175739 -2.64268 -0.0570809 0.953699 0.295298 137 141 142
0.25191 -0.175691 -2.6324 0.0251562 0.94784 0.317751 142 146 147
0.257061 -0.176273 -2.64487 0.0452492 0.942783 0.330322 141 145 146
0.260664 -0.176301 -2.63905 0.0799655 0.9347 0.346325 145 148 149
0.259927 -0.175556 -2.63605 0.0552826 0.940879 0.334203 145 149 150
0.264827 -0.175712 -2.64125 0.0801095 0.934082 0.347955 141 145 146
0.264345 -0.17685 -2.6346 0.209396 0.884191 0.417565 149 152 153
0.268352 -0.17612 -2.63625 -0.0114832 0.950046 0.311898 147 150 151
0.27926 -0.175634 -2.63618 0.142841 0.912509 0.383306 149 151 152
0.305892 -0.177192 -2.6366 -0.0340258 0.948478 0.315012 148 150 152
0.302891 -0.175791 -2.63437 0.0781056 0.925937 0.369514 148 150 152
0.302891 -0.175791 -2.63437 0.0781056 0.925937 0.369514 148 150 152
0.302891 -0.175791 -2.63437 0.0781056 0.925937 0.369514 148 150 152
0.113643 -0.151958 -2.54754 0.800612 -0.237024 0.55031 50 68 20
0.115654 -0.152655 -2.55016 0.458863 -0.230249 0.858155 89 105 43
0.18198 -0.173602 -2.62475 0.512653 0.75174 0.414819 116 119 118
0.179023 -0.170621 -2.61079 0.670548 0.565033 0.480731 115 120 120
0.185838 -0.173835 -2.62416 0.174757 0.929429 0.324996 114 117 114
0.189059 -0.172811 -2.62769 0.182085 0.925405 0.332372 99 102 99
0.189643 -0.173407 -2.62532 0.17543 0.927843 0.329138 99 101 99
0.193783 -0.1735 -2.62998 0.0440581 0.951476 0.304554 101 104 102
0.198007 -0.174626 -2.62938 0.0309917 0.953259 0.30056 113 115 114
0.201989 -0.174812 -2.62478 -0.00692307 0.956703 0.290984 123 127 127
0.206479 -0.175794 -2.63225 0.0545904 0.949647 0.308529 121 123 124
0.210222 -0.17482 -2.63191 0.185852 0.919912 0.345284 120 122 122
0.214152 -0.174659 -2.62663 -0.0505709 0.957122 0.285238 117 121 121
0.214152 -0.174659 -2.62663 -0.0505709 0.957122 0.285238 117 121 121
0.214152 -0.174659 -2.62663 -0.0505709 0.957122 0.285238 117 121 121
0.219085 -0.175292 -2.62749 0.178264 0.920497 0.347718 120 123 123
0.22275 -0.174851 -2.62855 0.21088 0.90691 0.364751 127 130 131
0.226999 -0.175496 -2.63375 0.203287 0.909319 0.363061 128 131 132
0.22988 -0.176162 -2.63047 -0.070067 0.956833 0.282065 130 135 135
0.230462 -0.175553 -2.6265 0.00688979 0.953024 0.302817 134 140 140
0.234857 -0.175408 -2.63073 0.0127762 0.95162 0.307011 130 135 136
0.243075 -0.175564 -2.63043 -0.142577 0.953961 0.263877 140 144 145
0.247697 -0.176252 -2.62973 0.0258376 0.947831 0.317726 144 148 149
0.193494 -0.174906 -2.62381 0.172879 0.928901 0.327499 116 119 116
-0.332037 0.336357 -3.35355 0.256976 -0.636514 0.727196 255 255 255
-0.292388 0.296149 -3.43985 0.88586 -0.158114 0.436179 251 253 253
-0.276374 0.298144 -3.44174 0.168563 -0.603341 0.779465 254 254 254
-0.279735 0.289837 -3.45057 0.712707 -0.183209 0.677114 249 250 251
0.170414 0.039699 -2.64035 -0.397376 -0.462795 0.79241 254 254 254
0.177793 0.0429403 -2.65516 0.712215 0.32799 0.620623 254 253 254
0.175592 0.0442175 -2.65516 0.730703 0.304714 0.610919 254 254 254
-0.248262 0.282266 -3.47131 0.564475 -0.190693 0.803121 254 255 254
0.177923 0.0381984 -2.64661 0.664489 0.119361 0.737704 249 253 252
-0.241444 0.279761 -3.48327 0.861111 0.298587 0.411501 253 254 253
0.15553 0.0382058 -2.64841 -0.0643964 -0.961953 0.265516 255 255 255
0.155583 0.0367645 -2.65163 -0.0428169 -0.967253 0.250177 249 251 249
0.175473 0.0377284 -2.64734 0.761427 0.172725 0.624816 213 220 220
0.19837 0.0390119 -2.65918 0.69611 -0.575717 0.428929 255 255 255
0.194558 0.0338734 -2.64865 0.618876 -0.693787 0.36831 251 254 252
0.196322 0.0342485 -2.65145 0.681834 -0.571388 0.456747 250 254 252
0.178665 0.0322066 -2.64648 0.752037 0.274518 0.599233 96 101 108
0.180643 0.0310993 -2.64853 0.783951 0.0928534 0.61384 93 100 113
0.190451 0.0297609 -2.64278 0.165519 -0.93684 0.308112 114 129 132
0.193648 0.0323305 -2.65203 0.616215 -0.633031 0.468562 144 155 158
0.194221 0.0293087 -2.6434 0.317756 -0.875142 0.364907 126 138 140
0.204566 0.0377897 -2.67233 0.710915 0.150817 0.686916 225 231 231
0.204515 0.0395118 -2.67226 0.786977 -0.0269363 0.616395 244 247 247
0.193491 0.0312731 -2.66009 0.543598 -0.468665 0.696315 89 100 107
0.197187 0.0334238 -2.66452 0.0171973 0.000252519 0.999852 111 123 129
0.197398 0.0328939 -2.66465 0.351813 0.148412 0.92423 109 121 128
0.195726 0.0309652 -2.66515 0.563057 -0.617832 0.548864 93 105 113
0.197828 0.0311408 -2.6646 0.559845 -0.181507 0.808473 86 96 105
0.201887 0.0318859 -2.66883 0.536626 0.0565958 0.84192 102 111 119
0.182308 0.023643 -2.64981 0.777008 0.2324 0.585021 128 151 171
0.198933 0.0275773 -2.66604 0.755731 0.0401831 0.653648 136 156 173
0.213143 0.0338625 -2.68432 0.34464 0.617925 0.706677 110 122 129
0.229745 0.0280952 -2.66916 -0.0377547 -0.933243 0.357255 220 229 230
0.209571 0.0290843 -2.68147 0.0851763 -0.42766 0.899918 134 154 171
0.218472 0.0161564 -2.62864 0.135078 -0.925568 0.353662 107 116 122
0.223399 0.0179776 -2.6309 0.282705 -0.900748 0.329745 177 190 192
0.183472 0.0199601 -2.64921 0.771277 0.17546 0.611838 114 137 154
0.219299 0.0277106 -2.69056 0.653794 -0.317248 0.686955 135 157 175
0.234622 0.0314963 -2.7002 0.65874 0.0594507 0.750018 108 121 129
0.24972 0.0353367 -2.72191 0.747266 0.0891667 0.658516 159 172 176
-0.00663442 0.0463177 -2.79954 -0.272306 -0.217274 0.937359 140 138 152
0.183904 0.0113286 -2.6499 0.406457 -0.143576 0.902318 119 142 161
0.261247 0.0297512 -2.73438 0.708819 0.0445689 0.703981 95 106 116
0.265974 0.0327075 -2.74797 -0.112841 -0.0271276 0.993243 92 103 111
-0.00292207 0.0408083 -2.7956 -0.113159 -0.635059 0.76413 167 168 182
0.214719 0.0152828 -2.68516 0.550205 -0.593479 0.587415 125 148 164
0.215768 0.0153265 -2.68532 0.631736 -0.55716 0.538964 125 147 163
0.266365 0.0267078 -2.73842 0.382716 0.555155 0.738466 138 158 174
0.271597 0.0302129 -2.74837 0.398946 0.518754 0.756132 114 127 138
0.275527 0.0313375 -2.7537 0.450173 0.523563 0.723344 97 105 114
-0.00474356 0.0381455 -2.7924 -0.141729 -0.781171 0.608017 159 155 172
-0.00447012 0.037318 -2.79236 0.0354663 -0.917118 0.397034 174 170 186
-0.00447012 0.037318 -2.79236 0.0354663 -0.917118 0.397034 174 170 186
0.205251 0.0106925 -2.6753 0.753867 -0.447436 0.48113 124 141 158
0.225654 0.0154694 -2.69627 0.604113 -0.627002 0.491849 125 141 156
0.233725 0.0174183 -2.70659 0.711993 0.0842032 0.69712 123 140 154
0.235923 0.0190938 -2.70783 0.65556 0.237636 0.716778 106 124 139
0.23832 0.017863 -2.70988 0.683177 0.294421 0.668271 114 132 147
0.241803 0.0208823 -2.71644 0.642278 -0.357038 0.678235 137 158 176
0.278692 0.027542 -2.75581 0.696211 -0.173926 0.696449 139 158 172
0.281814 0.0280359 -2.75737 0.697553 -0.124806 0.70558 141 155 169
0.285222 0.0290962 -2.76175 0.636682 -0.0593758 0.768837 121 132 144
0.176661 0.00269197 -2.64857 -0.0159388 -0.0227524 0.999614 99 102 105
0.207627 0.00838287 -2.67827 0.6961 -0.0553354 0.715809 62 63 67
0.209761 0.0115778 -2.68271 0.735858 0.104908 0.66896 122 145 164
0.21142 0.00930903 -2.68234 0.510396 -0.156873 0.84551 93 107 115
0.223407 0.0117258 -2.68789 0.761235 -0.392889 0.515906 131 148 165
0.225044 0.013755 -2.70048 0.66989 -0.455258 0.586505 125 143 159
0.241655 0.0172859 -2.71645 0.679784 -0.324076 0.657927 129 146 161
0.253045 0.0197704 -2.7287 0.516783 -0.460325 0.721828 117 137 152
0.268782 0.0226379 -2.74285 0.653384 -0.536059 0.534537 138 161 178
0.288251 0.0279939 -2.76624 0.473865 0.165816 0.864845 142 160 176
0.294324 0.0293197 -2.77492 0.330003 0.354377 0.874937 143 158 172
0.29812 0.0290823 -2.77537 0.258602 0.631939 0.730601 125 136 148
-0.071646 0.0418742 -2.85078 0.986638 -0.116358 0.114041 131 129 143
0.224293 0.011848 -2.69845 0.529398 -0.193383 0.826039 122 142 159
0.228939 0.0119626 -2.70628 0.61564 -0.125416 0.777983 126 145 161
0.284518 0.0221539 -2.76287 0.664578 -0.29335 0.687228 133 155 172
0.296647 0.0257581 -2.77368 0.659541 0.216247 0.719891 146 167 184
0.192662 0.00162448 -2.66601 0.724512 -0.402448 0.55957 114 107 110
0.209217 0.00586013 -2.68402 0.673139 -0.161315 0.721707 138 103 105
0.257968 0.0148641 -2.73205 0.636961 -0.469487 0.611443 131 149 162
0.309353 0.0253718 -2.78994 0.396342 -0.709119 0.583149 139 158 173
0.307585 0.0264166 -2.79241 0.616636 -0.306662 0.725065 141 161 177
0.307556 0.0263685 -2.79219 0.617164 -0.311085 0.722727 141 161 177
0.30636 0.0241906 -2.78669 0.622975 -0.450769 0.639304 137 158 178
0.312794 0.0245204 -2.79266 0.162789 -0.659754 0.733638 141 158 174
0.316425 0.0240296 -2.79755 0.149777 -0.569269 0.808393 149 168 183
0.175224 -0.0041281 -2.64625 0.785907 0.0542362 0.615961 93 92 97
0.260931 0.0105855 -2.73712 0.46154 0.507695 0.72748 125 142 158
0.272276 0.0124346 -2.74812 0.710314 -0.269765 0.650139 128 146 162
0.299488 0.017258 -2.77629 0.260818 0.646359 0.717073 114 130 142
0.304825 0.018016 -2.78138 0.306513 0.613203 0.728032 119 134 148
0.30873 0.0215313 -2.78788 0.673616 -0.212827 0.707775 133 153 172
0.207915 -0.0008733 -2.68012 0.755591 -0.207969 0.621153 144 113 116
0.205638 -0.00180437 -2.67881 0.763747 -0.14786 0.628353 152 112 118
0.212565 -0.000614893 -2.68559 0.78305 -0.35049 0.513799 127 118 120
0.242144 0.00708414 -2.72097 0.507788 -0.214407 0.834375 95 85 84
0.285695 0.0140655 -2.7674 -0.00653333 -0.12155 0.992564 133 151 165
0.324921 0.0215954 -2.81158 0.411771 0.516863 0.750532 140 157 173
0.324901 0.0215713 -2.81145 0.411076 0.516596 0.751095 140 157 173
0.176568 -0.0105644 -2.64649 0.782594 0.0702989 0.61855 104 90 97
0.180224 -0.00859941 -2.65007 0.804127 -0.201942 0.559106 132 124 123
0.181663 -0.00813798 -2.65172 0.814235 -0.186767 0.549671 137 114 110
0.184819 -0.00866422 -2.65543 0.7339 0.23113 0.638725 136 101 103
0.202573 -0.00401334 -2.67439 0.805849 -0.309595 0.504737 126 114 117
0.20976 -0.00506759 -2.6816 0.774779 -0.12311 0.62013 117 102 106
0.219297 -0.00333699 -2.69308 0.752101 -0.160028 0.639324 136 111 114
0.229381 0.000282264 -2.70432 0.771928 -0.324749 0.546503 123 115 119
0.240696 0.000857738 -2.71543 0.630284 -0.364113 0.685685 103 100 105
0.280925 0.00816239 -2.76245 0.251913 0.269161 0.929565 68 72 76
0.308217 0.0138119 -2.78881 0.688727 -0.353141 0.633203 119 137 153
0.313138 0.0141075 -2.79406 0.55021 -0.567301 0.61273 134 149 165
0.324515 0.0153332 -2.80552 0.627456 0.131314 0.7675 132 146 160
0.177779 -0.0120031 -2.64872 0.788699 -0.246608 0.56315 144 107 107
0.18213 -0.0122969 -2.65243 0.821012 0.136249 0.554415 124 100 101
0.193284 -0.00941906 -2.6655 0.834465 0.00662599 0.551021 127 108 113
0.204622 -0.00743843 -2.67728 0.819353 -0.230165 0.525057 148 107 106
0.208234 -0.00782255 -2.68036 0.735341 0.236416 0.635123 147 114 110
0.214101 -0.00645453 -2.68722 0.748845 -0.21335 0.627465 121 109 107
0.217046 -0.00468234 -2.69057 0.74188 0.0682692 0.667049 120 100 103
0.231478 -0.00319216 -2.70588 0.769699 -0.310055 0.558058 140 122 125
0.271925 0.00560366 -2.75063 0.707116 -0.0920695 0.701078 110 102 104
0.293634 0.00845597 -2.77324 0.646964 -0.486871 0.586851 89 101 112
0.319179 0.0111516 -2.80283 0.62986 0.00407694 0.776698 129 145 156
0.181028 -0.0133205 -2.65084 0.775799 0.0890975 0.624659 120 94 94
0.184543 -0.013079 -2.65522 0.786778 0.208243 0.581046 143 96 97
0.188195 -0.0120959 -2.65769 0.732533 0.247436 0.634169 137 100 105
0.230036 -0.00724761 -2.7042 0.762559 -0.344302 0.547687 136 110 108
0.232575 -0.00600429 -2.70766 0.770189 -0.302455 0.561543 128 106 109
0.238576 -0.00436577 -2.71538 0.557727 -0.527253 0.64105 115 111 117
0.243444 -0.00279995 -2.72083 0.760033 -0.287411 0.582876 135 120 121
0.241297 -0.00436989 -2.71815 0.658387 -0.376592 0.651694 114 108 110
0.254443 -0.00160854 -2.73002 0.724736 0.192723 0.661525 142 108 113
0.25779 -0.00107329 -2.7351 0.665873 -0.507049 0.547279 144 111 116
0.270458 1.80038e-005 -2.74852 0.691436 0.236354 0.682681 124 110 111
0.309084 0.0053144 -2.78905 0.586401 -0.483326 0.650023 91 80 82
0.30909 0.00532271 -2.78909 0.587484 -0.481241 0.650592 91 80 82
0.315635 0.00794207 -2.79795 0.701262 0.0532799 0.71091 80 89 96
0.356697 0.0117537 -2.81996 0.574241 0.208413 0.791714 129 139 152
0.405826 0.0214405 -2.88912 0.586224 -0.409394 0.699098 140 160 180
0.185515 -0.0146333 -2.65747 0.779376 -0.365883 0.508628 135 94 99
0.248843 -0.00608734 -2.72527 0.736435 -0.361815 0.571623 126 105 111
0.255658 -0.00560811 -2.73221 0.731501 0.17408 0.659244 121 101 103
0.274801 -0.00159248 -2.75383 0.707542 0.184986 0.68203 139 113 118
0.27735 -0.00234652 -2.75743 0.710984 -0.196329 0.675245 135 123 123
0.282486 -0.00122448 -2.76151 0.635314 -0.517179 0.5735 141 115 119
0.28685 -0.00107902 -2.76504 0.591976 -0.567463 0.57232 131 123 123
0.290455 -8.41749e-005 -2.76922 0.687267 -0.389554 0.613116 112 105 106
0.293994 0.000805739 -2.77239 0.685002 -0.363859 0.631173 122 119 122
0.298955 0.00300656 -2.78234 0.707785 -0.249007 0.661087 128 123 128
0.378257 0.0150972 -2.86123 0.626466 -0.100931 0.772887 136 145 156
0.530359 0.0336435 -3.01416 0.453987 -0.562437 0.691057 243 237 238
0.53096 0.0337196 -3.01566 0.410738 -0.565028 0.715568 243 237 237
0.18235 -0.0181044 -2.65251 0.771664 0.101043 0.627953 139 101 106
0.18436 -0.0180529 -2.65529 0.809947 -0.290573 0.509463 143 110 117
0.238852 -0.0106652 -2.71289 0.777411 -0.239417 0.581646 121 99 102
0.246064 -0.0088908 -2.72138 0.75742 -0.21426 0.616772 156 113 120
0.269902 -0.00538663 -2.74807 0.712669 -0.168961 0.680849 123 102 106
0.272258 -0.00436686 -2.74976 0.71241 0.0811272 0.697059 141 110 114
0.27915 -0.00554132 -2.75834 0.704441 -0.198192 0.68153 120 109 112
0.283396 -0.00473132 -2.76438 0.68557 -0.407099 0.603543 132 115 118
0.286899 -0.00455257 -2.76842 0.635699 -0.395129 0.663144 133 128 128
0.291616 -0.0036556 -2.77187 0.685301 -0.126566 0.717178 155 108 115
0.297192 -0.00178749 -2.77867 0.687407 -0.078567 0.72201 150 109 116
0.316194 0.00235965 -2.79925 0.574838 -0.494298 0.652097 144 121 124
0.319643 0.00202383 -2.80018 0.575489 -0.490142 0.654655 136 117 122
0.323354 0.0037597 -2.80589 0.656167 -0.115839 0.745672 122 112 117
0.354601 0.00509462 -2.81956 0.499565 -0.131426 0.856249 126 141 153
0.178545 -0.0229698 -2.64849 0.827818 0.0153633 0.560786 119 96 97
0.21523 -0.0171031 -2.68816 0.753406 -0.115605 0.647314 115 110 109
0.242717 -0.0115743 -2.71807 0.735506 -0.301862 0.606557 122 103 103
0.244939 -0.0128155 -2.72169 0.752469 -0.263267 0.603723 130 110 112
0.269811 -0.00924824 -2.74789 0.738478 -0.0708125 0.670549 136 118 121
0.287485 -0.00798187 -2.76679 0.694491 -0.110229 0.711008 136 115 121
0.294344 -0.00429955 -2.77348 0.711857 -0.26713 0.649539 146 106 115
0.305125 -0.00526237 -2.78633 0.707429 0.0635381 0.703923 120 117 122
0.355384 0.00123747 -2.82036 0.438105 0.000748087 0.898924 76 74 78
0.375563 0.00375669 -2.85908 0.293512 -0.118108 0.948631 92 84 87
0.376817 0.00762444 -2.86182 0.544919 -0.124573 0.829183 121 132 143
0.37647 0.00779202 -2.86213 0.538222 -0.0739979 0.839549 120 131 142
0.376819 0.00762573 -2.86183 0.546696 -0.122409 0.828336 121 132 143
0.484347 0.0214364 -2.97249 0.495493 -0.434468 0.752147 135 157 178
0.500512 0.0217505 -2.99126 0.504984 -0.473101 0.721919 144 164 186
0.197084 -0.0217884 -2.66851 0.758648 0.0881556 0.645509 95 95 98
0.243703 -0.0147639 -2.71879 0.740253 -0.356239 0.570193 142 107 112
0.258345 -0.012933 -2.73475 0.764807 -0.0343608 0.643343 140 112 113
0.259259 -0.0153571 -2.73511 0.733016 -0.324566 0.597783 152 109 112
0.259259 -0.0153571 -2.73511 0.733016 -0.324566 0.597783 152 109 112
0.268642 -0.0137202 -2.74508 0.705784 0.220525 0.673229 136 111 113
0.277286 -0.0110603 -2.75716 0.726687 -0.289066 0.623191 118 115 115
0.280805 -0.0100798 -2.76179 0.685314 -0.407933 0.603271 130 124 123
0.28071 -0.00929832 -2.76208 0.671133 -0.441876 0.595253 134 127 126
0.284334 -0.00870637 -2.76642 0.714348 -0.314394 0.625191 147 117 122
0.28997 -0.0105461 -2.77035 0.631423 -0.42963 0.645541 126 118 117
0.306795 -0.00606362 -2.7896 0.656558 -0.423009 0.624495 118 106 111
0.308679 -0.00559856 -2.79098 0.68028 -0.141958 0.719074 121 108 113
0.326211 -0.0038224 -2.80977 0.677902 -0.312568 0.665395 151 105 108
0.367778 0.000717697 -2.84902 0.625105 -0.377299 0.683292 137 135 141
0.510489 0.021587 -3.00102 0.567945 -0.263998 0.779579 140 159 180
0.510402 0.0216417 -3.00094 0.571989 -0.261057 0.77761 140 159 180
0.516575 0.0205744 -3.0077 0.340919 -0.420687 0.840712 140 157 178
0.523921 0.0203323 -3.01341 0.367323 -0.558116 0.74403 137 155 175
0.197587 -0.0250069 -2.66824 0.772719 0.0597002 0.631934 133 106 108
0.242254 -0.0188204 -2.71806 0.762022 -0.280634 0.583581 135 117 117
0.246457 -0.0199251 -2.72264 0.726287 -0.104845 0.679349 144 110 114
0.260726 -0.0179796 -2.73768 0.710223 -0.0464645 0.702442 117 106 107
0.278568 -0.0148536 -2.75846 0.699118 -0.370047 0.611801 127 116 113
0.282001 -0.0138185 -2.76209 0.699593 -0.352774 0.621386 118 114 113
0.286725 -0.0125431 -2.76626 0.695714 -0.0940664 0.712133 119 110 112
0.300154 -0.011057 -2.78102 0.708917 -0.259341 0.65588 134 104 109
0.332629 -0.00826503 -2.81538 0.601275 0.32564 0.729676 120 112 114
0.377258 -0.00249121 -2.86383 0.63297 -0.331062 0.69982 120 118 123
0.197367 -0.0272243 -2.66386 0.819981 0.118635 0.559962 134 99 100
0.233735 -0.0216651 -2.70902 0.787474 0.0593487 0.613484 131 101 104
0.233735 -0.0216651 -2.70902 0.787474 0.0593487 0.613484 131 101 104
0.233735 -0.0216651 -2.70902 0.787474 0.0593487 0.613484 131 101 104
0.24384 -0.0213548 -2.71994 0.718691 -0.207797 0.663554 141 107 112
0.248308 -0.0227658 -2.72445 0.723733 -0.156014 0.672213 111 105 109
0.253192 -0.0216088 -2.7295 0.716835 -0.100553 0.689954 141 115 120
0.257413 -0.0196394 -2.7336 0.743214 -0.290921 0.602493 142 119 119
0.265535 -0.0189419 -2.74274 0.704968 -0.126851 0.697803 139 108 111
0.302789 -0.0145146 -2.78444 0.684173 -0.127551 0.71808 141 112 116
0.306388 -0.0126171 -2.78875 0.629403 -0.355811 0.690833 131 102 103
0.313372 -0.0120922 -2.79382 0.678322 -0.205304 0.705499 126 111 114
0.326621 -0.0125381 -2.80837 0.662946 -0.349568 0.662046 121 109 110
0.331666 -0.0117188 -2.81699 0.676002 0.134923 0.724442 120 112 114
0.336547 -0.00912882 -2.82037 0.652894 -0.0936823 0.751634 124 118 120
0.377992 -0.00594459 -2.86409 0.63382 -0.269057 0.725176 123 127 132
0.51171 0.00902352 -3.00274 0.493882 -0.48237 0.723464 133 152 173
0.516617 0.00917269 -3.00732 0.343085 -0.459868 0.819032 134 154 174
0.240339 -0.0265983 -2.71521 0.746729 -0.227804 0.624901 145 108 110
0.242982 -0.0253164 -2.71872 0.718204 -0.23127 0.656275 134 112 113
0.245591 -0.0239173 -2.72123 0.730412 -0.166442 0.662416 121 108 111
0.258009 -0.0217819 -2.73526 0.74497 0.139627 0.652322 134 118 119
0.295866 -0.0183033 -2.77688 0.681803 -0.103831 0.72413 123 103 106
0.301765 -0.0193906 -2.78326 0.682235 -0.0680879 0.727956 134 111 113
0.310279 -0.0170768 -2.79081 0.661764 -0.385373 0.643084 140 108 110
0.328375 -0.0154804 -2.8117 0.66938 -0.198613 0.71588 133 121 126
0.371634 -0.010805 -2.85129 0.410827 0.529228 0.742387 130 130 132
0.371634 -0.010805 -2.85129 0.410827 0.529228 0.742387 130 130 132
0.371634 -0.010805 -2.85129 0.410827 0.529228 0.742387 130 130 132
0.518387 0.00723361 -3.00866 0.47885 -0.490867 0.727841 134 156 174
0.197264 -0.033059 -2.66792 0.773186 -0.0426276 0.632745 132 94 94
0.237715 -0.0278368 -2.71275 0.764678 -0.272927 0.583762 130 104 107
0.248955 -0.0285183 -2.72608 0.732245 -0.173708 0.658516 112 117 121
0.262287 -0.0245418 -2.7395 0.710653 -0.0713165 0.699919 127 107 109
0.259412 -0.0255148 -2.73624 0.70576 0.105121 0.700609 142 107 110
0.263993 -0.0269106 -2.74124 0.737283 -0.275009 0.617077 131 103 107
0.293216 -0.0240234 -2.77433 0.698387 -0.181273 0.692384 118 102 105
0.30067 -0.0208117 -2.78056 0.681199 -0.11136 0.723579 136 118 123
0.311011 -0.0206263 -2.79211 0.673784 -0.136339 0.726241 127 114 117
0.317118 -0.0218324 -2.79841 0.713074 -0.0410394 0.699886 139 114 121
0.31957 -0.0207344 -2.80179 0.67434 -0.32301 0.664025 131 118 119
0.326664 -0.0207312 -2.81053 0.654849 -0.203623 0.727812 140 108 115
0.332677 -0.0174484 -2.81632 0.657771 0.0683614 0.75011 122 112 114
0.194865 -0.0360451 -2.66547 0.774811 -0.0157776 0.631996 120 113 114
0.195963 -0.0368865 -2.66731 0.760774 0.104325 0.640577 127 119 113
0.197937 -0.0356338 -2.66849 0.800341 -0.0374925 0.598371 110 103 103
0.200793 -0.0340311 -2.67222 0.762191 -0.164423 0.626122 111 91 95
0.20274 -0.0356535 -2.67565 0.802119 -0.179008 0.569703 137 103 106
0.258237 -0.0288852 -2.73428 0.739863 -0.247089 0.62574 122 95 101
0.265556 -0.0285593 -2.74304 0.710416 -0.10443 0.695992 124 101 104
0.269607 -0.0270843 -2.7468 0.670257 -0.443715 0.594873 134 107 109
0.276251 -0.0262362 -2.754 0.751499 -0.0546262 0.657469 130 117 113
0.286125 -0.0263542 -2.76521 0.682284 -0.212974 0.699379 147 107 108
0.289476 -0.0249182 -2.76889 0.64244 -0.387532 0.661128 131 104 106
0.30056 -0.0261173 -2.78067 0.655772 -0.295209 0.694849 129 122 124
0.304327 -0.0243407 -2.7856 0.690876 -0.194475 0.696326 117 108 113
0.30781 -0.0244278 -2.78789 0.671847 -0.356577 0.64921 114 111 110
0.322489 -0.0224368 -2.80565 0.630612 -0.430114 0.646011 132 110 113
0.184818 -0.0407319 -2.65565 0.786035 -0.0983441 0.610309 97 88 93
0.205894 -0.0366246 -2.67698 0.786872 -0.308687 0.534363 147 103 103
0.231228 -0.0362677 -2.70493 0.71186 0.31164 0.629394 129 109 110
0.24347 -0.0350673 -2.71915 0.713719 -0.0565999 0.698141 113 96 99
0.247944 -0.032337 -2.72554 0.715297 -0.191814 0.67198 132 116 119
0.245429 -0.0332921 -2.72302 0.76047 -0.249822 0.599395 136 109 110
0.252126 -0.0336856 -2.72835 0.726313 -0.17342 0.665128 125 113 112
0.256758 -0.0336904 -2.73253 0.709958 -0.375591 0.595727 138 106 111
0.259693 -0.0322144 -2.73645 0.740025 -0.242237 0.627442 135 111 113
0.270354 -0.0303417 -2.74845 0.651712 -0.474173 0.591972 126 108 107
0.273555 -0.0299547 -2.75116 0.615637 -0.455522 0.643032 109 102 102
0.287927 -0.0294438 -2.76667 0.705315 -0.303742 0.640524 131 98 102
0.299099 -0.0302467 -2.77934 0.661305 -0.397378 0.636212 114 102 106
0.306616 -0.0290002 -2.78752 0.72122 -0.00703242 0.692671 113 119 122
0.308868 -0.0282161 -2.78865 0.707594 -0.208395 0.67519 131 127 127
0.316926 -0.0254897 -2.79904 0.68441 0.0636745 0.726312 131 105 108
0.316776 -0.0272429 -2.79829 0.713451 -0.0678122 0.697416 143 104 112
0.324774 -0.0259065 -2.80837 0.682512 0.0781712 0.726682 120 106 104
0.329328 -0.024779 -2.81269 0.660368 -0.12829 0.739903 116 104 105
0.329284 -0.0248061 -2.81243 0.659537 -0.13324 0.739769 116 104 105
0.329257 -0.0248226 -2.81227 0.656848 -0.117233 0.744854 116 104 105
0.194193 -0.0401199 -2.66508 0.775284 -0.0947 0.624473 108 104 105
0.199109 -0.0404806 -2.67079 0.79175 -0.124331 0.598058 101 94 97
0.21955 -0.0383028 -2.69232 0.790462 -0.239134 0.563902 153 99 98
0.226438 -0.0397529 -2.69836 0.778743 0.164243 0.605462 127 106 107
0.227953 -0.0372317 -2.70136 0.773645 0.173393 0.609433 141 106 107
0.23006 -0.0387453 -2.70483 0.753586 0.235534 0.613704 139 109 109
0.246753 -0.0367763 -2.72441 0.728982 -0.0678451 0.681163 130 112 113
0.253931 -0.0361624 -2.73016 0.67071 -0.344727 0.656744 109 107 109
0.258391 -0.0364716 -2.73513 0.737466 -0.225537 0.636613 105 103 107
0.256875 -0.0353811 -2.7332 0.724224 -0.220131 0.653485 106 97 103
0.286276 -0.0342219 -2.76525 0.735918 -0.151798 0.659835 132 99 101
0.29123 -0.034553 -2.77003 0.734108 0.00477954 0.679016 127 97 100
0.288249 -0.0319738 -2.76712 0.713237 0.0934872 0.694661 139 103 109
0.295354 -0.0309939 -2.77586 0.66843 -0.254701 0.698805 128 105 109
0.30102 -0.0330565 -2.78192 0.692667 0.0580177 0.71892 153 103 112
0.304578 -0.0322105 -2.78542 0.635764 0.207958 0.743342 130 116 118
0.310125 -0.0313263 -2.79181 0.704656 -0.0227575 0.709184 124 109 113
0.328303 -0.0299465 -2.81201 0.658291 -0.0842838 0.74803 113 111 111
0.332136 -0.027895 -2.81536 0.658526 -0.150452 0.737365 117 115 113
0.205189 -0.044376 -2.67754 0.173809 0.0529585 0.983354 120 113 110
0.209956 -0.042369 -2.6817 0.772041 0.223958 0.594807 119 110 110
0.228897 -0.0408936 -2.70376 0.764596 0.207215 0.610291 111 92 96
0.23181 -0.04193 -2.70563 0.713344 0.327749 0.619452 102 100 102
0.235695 -0.0407465 -2.70963 0.74363 0.172564 0.645938 110 106 109
0.2394 -0.0411805 -2.71589 0.6629 -0.429681 0.613138 104 96 99
0.24318 -0.0388324 -2.71853 0.628103 -0.100929 0.771557 133 114 111
0.246102 -0.0408125 -2.72085 0.722438 -0.119391 0.68105 110 100 100
0.253644 -0.0399559 -2.73088 0.745436 -0.271503 0.608779 109 117 121
0.253065 -0.0399546 -2.73015 0.745489 -0.273468 0.607833 106 112 115
0.260456 -0.0387596 -2.73705 0.717654 -0.148883 0.680299 120 108 107
0.263209 -0.0373204 -2.73879 0.732707 -0.283391 0.618733 128 112 112
0.266723 -0.0385984 -2.74514 0.708763 -0.332883 0.621967 134 117 116
0.26951 -0.036965 -2.74752 0.70592 -0.0932282 0.702129 119 111 110
0.288692 -0.0366219 -2.76735 0.702568 -0.0643434 0.708701 123 109 112
0.295989 -0.0350274 -2.77506 0.628945 -0.4642 0.623656 137 104 105
0.30877 -0.0333933 -2.79015 0.720554 -0.0336444 0.692582 134 116 120
0.312949 -0.0340774 -2.79396 0.669309 -0.0841864 0.738199 131 113 112
0.325414 -0.0341996 -2.80676 0.658214 -0.0534766 0.750929 140 100 104
0.336127 -0.0310158 -2.82046 0.661774 -0.176181 0.728708 118 111 111
-0.107168 -0.0295628 -2.92081 0.65933 -0.709715 0.248173 57 46 46
0.181669 -0.0472871 -2.65185 0.759519 -0.0329722 0.649649 93 89 91
0.199718 -0.0452145 -2.67103 0.829621 -0.0501015 0.556074 115 112 114
0.209738 -0.0456323 -2.682 0.759154 -0.0557272 0.648521 117 104 104
0.22735 -0.0433881 -2.70121 0.77817 0.16157 0.606916 131 111 109
0.227098 -0.0433602 -2.70155 0.777557 0.159738 0.608185 131 110 108
0.236921 -0.0447129 -2.70886 0.747379 0.17698 0.640393 145 99 101
0.241502 -0.0437484 -2.71718 0.733487 -0.189418 0.652777 137 103 104
0.250715 -0.0414328 -2.72769 0.723131 -0.0994799 0.68351 105 97 100
0.248254 -0.0433236 -2.72406 0.712685 -0.175747 0.679113 123 105 104
0.252787 -0.04359 -2.73099 0.675134 -0.159151 0.720323 125 104 107
0.255476 -0.0423503 -2.73267 0.71699 0.0325204 0.696324 104 104 109
0.263182 -0.0428537 -2.74082 0.722981 0.0752908 0.686753 125 112 113
0.26787 -0.0418607 -2.74621 0.715669 -0.318665 0.621507 102 98 99
0.272378 -0.0407848 -2.7496 0.742245 -0.176768 0.646394 123 115 121
0.287963 -0.0412407 -2.76747 0.716892 -0.244385 0.652948 111 107 111
0.297684 -0.0403806 -2.77914 0.689504 0.0329683 0.723531 124 115 116
0.301609 -0.0378091 -2.78343 0.698791 0.0936554 0.709169 131 112 114
0.308383 -0.0386881 -2.78957 0.678237 -0.0475634 0.733303 122 109 110
0.314826 -0.0390197 -2.79632 0.709071 -0.0591996 0.702648 122 110 115
0.318293 -0.0366417 -2.79974 0.704215 -0.00110176 0.709986 109 96 100
0.322886 -0.0371251 -2.80406 0.705265 -0.0266935 0.708441 119 102 103
0.322888 -0.0369985 -2.80409 0.705717 -0.0179816 0.708266 119 101 102
0.325183 -0.0388649 -2.80684 0.667118 -0.0169935 0.744758 119 109 112
0.208446 -0.0481127 -2.68167 0.675644 0.155811 0.720575 120 112 112
0.227876 -0.0469783 -2.70132 0.728205 -0.182816 0.660527 109 95 97
0.230518 -0.0456977 -2.70527 0.717933 -0.216337 0.661643 111 106 106
0.234604 -0.0470143 -2.70761 0.771313 -0.0642849 0.633201 112 97 99
0.240544 -0.0476089 -2.71606 0.747027 -0.201197 0.633616 111 101 104
0.243157 -0.0462297 -2.7192 0.733149 -0.188968 0.653287 115 98 99
0.25021 -0.0454067 -2.72626 0.719897 -0.0912694 0.688054 129 106 107
0.247666 -0.0471337 -2.72255 0.722088 -0.109042 0.683154 118 102 102
0.254588 -0.046097 -2.7312 0.70098 0.20025 0.68449 115 107 107
0.260979 -0.0453934 -2.73723 0.727125 0.106448 0.678202 127 118 118
0.265949 -0.0446608 -2.74413 0.709068 -0.0409276 0.703952 122 117 117
0.270594 -0.04484 -2.74846 0.708215 -0.328289 0.625026 116 118 118
0.273867 -0.0437481 -2.75174 0.674162 -0.26522 0.689321 111 107 109
0.276762 -0.0446154 -2.75454 0.724836 0.156307 0.670956 136 109 111
0.281096 -0.0447705 -2.75965 0.676403 0.305035 0.670398 140 103 108
0.285569 -0.0444964 -2.7645 0.700106 -0.196342 0.686514 117 111 113
0.296542 -0.0420166 -2.77559 0.686307 -0.142411 0.713234 104 102 104
0.303989 -0.0405591 -2.78472 0.72071 -0.0718935 0.689498 126 105 108
0.311805 -0.0411985 -2.79448 0.668925 -0.040078 0.742249 136 106 111
0.333376 -0.0403674 -2.81661 0.61274 -0.341842 0.712526 124 116 118
0.338001 -0.0387366 -2.82271 0.634375 -0.216594 0.742062 117 115 116
0.185565 -0.0517207 -2.65446 0.846734 0.0732518 0.526949 100 94 94
0.196589 -0.0523733 -2.66354 0.703025 -0.0879205 0.70571 107 100 103
0.198179 -0.0516265 -2.66862 0.828627 -0.054857 0.557106 117 107 110
0.202099 -0.050632 -2.67436 0.733855 0.296675 0.611098 131 104 107
0.204465 -0.0515605 -2.67662 0.792183 0.225894 0.566938 123 105 104
0.218139 -0.0498517 -2.69022 0.753487 0.211891 0.622382 137 106 107
0.220511 -0.0509799 -2.69278 0.772113 0.228288 0.593065 120 104 105
0.224604 -0.0502221 -2.69754 0.778223 0.141462 0.611847 138 96 100
0.232373 -0.0487685 -2.70493 0.727753 0.287948 0.622464 123 114 115
0.234523 -0.0508012 -2.70999 0.715006 0.33027 0.616188 125 112 112
0.239788 -0.0496671 -2.71516 0.742761 0.249297 0.621415 114 110 113
0.237005 -0.0484952 -2.71087 0.766843 0.169354 0.619089 119 113 116
0.244821 -0.0490178 -2.71995 0.73816 -0.0505289 0.672731 135 111 113
0.245133 -0.0487088 -2.7199 0.723645 -0.0975018 0.683251 131 111 112
0.252837 -0.0480893 -2.72863 0.708993 -0.197102 0.677111 110 100 100
0.25749 -0.0474463 -2.73326 0.722307 0.249644 0.644942 112 100 105
0.259264 -0.0481162 -2.73465 0.718301 0.0761846 0.691548 117 103 105
0.263764 -0.0471368 -2.73996 0.70562 0.0581835 0.706198 114 104 106
0.268344 -0.0468866 -2.74652 0.652924 0.381895 0.654099 107 105 105
0.271578 -0.0479355 -2.748 0.728602 -0.25229 0.63678 116 103 103
0.280183 -0.0457555 -2.75801 0.71254 0.206483 0.670561 141 102 108
0.291113 -0.0467381 -2.77129 0.72167 -0.200054 0.6627 124 111 111
0.299215 -0.0447049 -2.78119 0.670295 -0.232901 0.7046 138 105 109
0.308068 -0.0467905 -2.78834 0.713907 -0.14659 0.684725 132 99 103
0.332049 -0.0452373 -2.81862 0.656761 -0.093832 0.748239 134 104 106
0.185412 -0.0544374 -2.65483 0.836044 0.154221 0.526543 121 107 108
0.193665 -0.0546348 -2.6631 0.706231 -0.0608411 0.705362 119 94 97
0.224542 -0.053241 -2.69695 0.777589 -0.0201071 0.628451 115 94 97
0.232905 -0.0523166 -2.70723 0.740312 0.279718 0.611307 113 106 106
0.2383 -0.0523476 -2.71286 0.755919 0.215289 0.618253 106 104 103
0.242439 -0.0509199 -2.71909 0.714091 0.172431 0.678485 132 111 112
0.240401 -0.052971 -2.71385 0.78838 0.00257086 0.615183 99 101 100
0.244786 -0.052853 -2.71957 0.722421 0.0252764 0.690992 119 100 102
0.251633 -0.0518892 -2.72817 0.704828 -0.223809 0.673147 116 106 106
0.25575 -0.0499843 -2.73242 0.747406 0.170463 0.642127 138 97 102
0.261743 -0.0500245 -2.73737 0.708524 -0.0329203 0.704918 126 111 111
0.269581 -0.0524199 -2.74544 0.753986 -0.0577669 0.654345 144 101 104
0.277953 -0.0491757 -2.75551 0.734657 0.12569 0.666694 124 113 117
0.285392 -0.0500952 -2.76435 0.742135 -0.0444017 0.668778 131 106 108
0.311771 -0.047964 -2.79535 0.671444 -0.0552684 0.738991 128 106 105
0.316356 -0.0474667 -2.79993 0.712748 0.00543685 0.701399 116 102 101
0.327616 -0.0476 -2.81148 0.622287 -0.196914 0.757617 114 103 103
0.333656 -0.0490051 -2.81708 0.575927 -0.483629 0.659099 115 100 100
0.338256 -0.0474347 -2.82331 0.570226 -0.489812 0.659489 123 93 98
0.378113 -0.0458826 -2.86327 0.66122 -0.0542025 0.748231 130 119 125
0.175849 -0.0569828 -2.64541 0.795418 -0.0841593 0.600189 97 103 109
0.184882 -0.0570836 -2.65572 0.818861 0.00361075 0.57398 102 92 91
0.186994 -0.0587061 -2.65718 0.791485 -0.0714918 0.606992 108 100 96
0.190047 -0.0580733 -2.66026 0.803723 -0.0246203 0.594493 99 91 88
0.199813 -0.0559732 -2.67109 0.557242 0.00237632 0.830347 124 95 97
0.203936 -0.0558628 -2.67545 0.795775 -0.261516 0.546216 126 109 105
0.211323 -0.0579303 -2.68204 0.754044 0.31598 0.575825 116 90 92
0.218363 -0.0557707 -2.68954 0.698069 0.35037 0.624452 127 99 96
0.222579 -0.0547615 -2.69464 0.780557 0.194544 0.59404 126 97 95
0.224116 -0.0568097 -2.69677 0.761824 -0.0869726 0.641919 135 96 100
0.235705 -0.0552465 -2.70848 0.739826 -0.329131 0.586797 141 110 111
0.242577 -0.0547535 -2.7185 0.727224 -0.0113492 0.686307 125 113 112
0.244918 -0.056634 -2.71962 0.744652 -0.0275808 0.666883 138 95 94
0.247243 -0.0547651 -2.72218 0.752221 -0.251213 0.609143 135 99 98
0.249277 -0.0540986 -2.72338 0.775637 -0.00697475 0.631141 121 101 99
0.250314 -0.0555507 -2.72699 0.739939 -0.187531 0.646005 147 96 99
0.25322 -0.0545049 -2.73006 0.69671 -0.276922 0.661748 129 97 98
0.263989 -0.0553466 -2.73856 0.7066 -0.0613082 0.704952 122 114 112
0.266512 -0.053349 -2.74126 0.728246 -0.136321 0.671621 124 100 103
0.284579 -0.0545066 -2.76259 0.742375 -0.0346248 0.66909 114 101 101
0.306735 -0.0541822 -2.78565 0.688283 -0.0607748 0.722892 125 100 104
0.311627 -0.0529233 -2.79368 0.668003 0.0121672 0.744059 131 103 104
0.310908 -0.0538212 -2.79322 0.684436 -0.169931 0.708993 121 99 104
0.318465 -0.0529081 -2.8018 0.66385 -0.0271462 0.747373 138 102 103
0.37775 -0.0501559 -2.86308 0.652233 -0.0161887 0.757845 109 104 107
0.538978 -0.0432591 -3.0395 0.508252 -0.151098 0.84785 119 104 95
0.188177 -0.0595296 -2.65849 0.781708 -0.074482 0.619181 127 110 106
0.200886 -0.0584916 -2.67198 0.763977 -0.11615 0.634704 107 92 91
0.204994 -0.0598653 -2.67669 0.761932 -0.123928 0.63569 105 97 93
0.225512 -0.058888 -2.69837 0.761942 -0.274924 0.586397 113 96 97
0.245538 -0.0584507 -2.72005 0.723905 -0.0717489 0.686159 119 94 91
0.249486 -0.0582591 -2.72514 0.77552 0.0354996 0.630325 130 96 97
0.257515 -0.0563103 -2.73465 0.736343 -0.26722 0.621604 110 109 109
0.29467 -0.0568259 -2.77383 0.717547 -0.188706 0.67046 125 114 117
0.298403 -0.0560981 -2.77742 0.678211 -0.0479825 0.733299 120 118 117
0.302862 -0.055627 -2.78155 0.694216 -0.244287 0.677044 130 107 109
0.328709 -0.0537514 -2.80971 0.678571 -0.232357 0.696815 120 109 112
0.328683 -0.0562948 -2.81048 0.652452 -0.0981591 0.751447 119 113 115
0.333241 -0.0539647 -2.81908 0.531812 -0.179163 0.827693 115 109 110
0.37483 -0.0522797 -2.85922 0.650213 -0.0398817 0.758705 124 116 115
0.198925 -0.0618891 -2.66971 0.761124 0.112938 0.638699 145 92 91
0.247489 -0.0603835 -2.72246 0.706393 -0.200284 0.678892 121 119 117
0.251512 -0.0602654 -2.72812 0.733162 0.25412 0.63079 114 113 111
0.256029 -0.0600194 -2.73265 0.711234 -0.0911957 0.697015 110 109 110
0.27273 -0.0619399 -2.74985 0.754315 -0.0307103 0.655794 137 97 96
0.275413 -0.0599385 -2.75318 0.683046 -0.176211 0.708801 111 98 95
0.28283 -0.0593012 -2.76109 0.697278 -0.114717 0.707562 113 101 103
0.287587 -0.0589854 -2.76576 0.736823 0.0498945 0.674242 120 104 105
0.292746 -0.0582106 -2.77173 0.72908 -0.00535189 0.684408 130 108 113
0.298158 -0.0606767 -2.77813 0.701005 -0.188422 0.687815 109 104 108
0.311549 -0.0578369 -2.79313 0.616022 -0.405693 0.675226 139 109 112
0.33255 -0.059083 -2.81857 0.640976 -0.0688238 0.764469 113 110 107
0.191664 -0.0656807 -2.66213 0.809327 -0.0916875 0.580158 130 94 95
0.193461 -0.0642019 -2.66397 0.748094 0.208548 0.62997 102 91 92
0.199592 -0.0663486 -2.66949 0.774823 -0.0113006 0.632077 135 100 102
0.20294 -0.0662678 -2.67419 0.746963 0.342889 0.569626 136 98 99
0.215217 -0.0649721 -2.68799 0.7505 -0.0867592 0.65515 110 95 96
0.219982 -0.0632946 -2.6934 0.763532 0.183485 0.619155 133 94 93
0.217246 -0.0633841 -2.69001 0.751127 -0.0375429 0.659089 123 91 93
0.22268 -0.0632394 -2.69587 0.791056 -0.168141 0.588183 135 95 94
0.225921 -0.0643701 -2.69918 0.742888 -0.0154538 0.669237 111 90 92
0.232949 -0.0644632 -2.70828 0.73013 0.180303 0.65909 115 91 96
0.230356 -0.0647375 -2.70421 0.737101 -0.0557803 0.673477 113 88 93
0.243464 -0.0653341 -2.71735 0.725016 -0.00708979 0.688696 109 102 98
0.255496 -0.0639798 -2.73133 0.713983 -0.092391 0.69404 121 113 111
0.26514 -0.0651596 -2.74381 0.719915 -0.139453 0.679909 116 96 98
0.268107 -0.0635768 -2.74674 0.722352 -0.161078 0.672504 134 97 99
0.273037 -0.0648599 -2.75122 0.688931 -0.208627 0.694153 122 95 98
0.279051 -0.0622225 -2.75648 0.741557 -0.0124926 0.670773 132 100 102
0.287509 -0.0643191 -2.76523 0.73841 -0.059305 0.671739 124 120 119
0.292891 -0.0646761 -2.77181 0.734206 0.0154377 0.678751 117 106 108
0.190394 -0.0671278 -2.65911 0.801804 -0.0569972 0.594863 138 92 94
0.193643 -0.068193 -2.66477 0.17668 0.136229 0.974795 125 93 96
0.195965 -0.0681761 -2.66618 0.774056 -0.00548941 0.633093 103 93 95
0.19726 -0.0689687 -2.66705 0.77241 -0.0158718 0.634926 116 94 96
0.201849 -0.0686101 -2.67342 0.791629 0.213647 0.572432 136 98 99
0.205351 -0.0671738 -2.6764 0.753212 0.255955 0.605936 129 97 99
0.211379 -0.0662996 -2.68431 0.786617 -0.189841 0.587532 131 100 101
0.216683 -0.0685726 -2.68918 0.778313 -0.263149 0.570071 132 98 95
0.214966 -0.0667149 -2.68742 0.800306 -0.0878055 0.593128 137 96 95
0.219213 -0.0676981 -2.69226 0.704029 -0.288914 0.648746 108 99 97
0.225741 -0.0675643 -2.69881 0.742753 -0.0213364 0.669226 109 102 101
0.232791 -0.0670185 -2.7071 0.755966 -0.19138 0.62601 135 99 100
0.252401 -0.0668218 -2.72866 0.729543 -0.146601 0.668039 117 112 109
0.257099 -0.0684519 -2.7334 0.7144 -0.284103 0.639467 132 111 107
0.262602 -0.0656802 -2.73859 0.722694 -0.162225 0.67186 110 99 101
0.27005 -0.0662536 -2.74887 0.689628 -0.204469 0.694698 116 107 107
0.277931 -0.0661183 -2.75716 0.705997 -0.138131 0.694614 118 100 101
0.300652 -0.0667238 -2.78087 0.721232 -0.0181517 0.692455 110 103 104
0.307499 -0.0670325 -2.79019 0.703286 -0.188679 0.685411 122 102 105
0.313366 -0.0651002 -2.79565 0.665791 0.0391413 0.745111 121 99 101
0.342379 -0.0642268 -2.82235 0.07266 0.8262 0.558672 130 98 101
0.397637 -0.0649352 -2.88383 0.623312 -0.0161685 0.781806 128 118 120
0.588895 -0.0615205 -3.09338 0.399361 -0.160392 0.902655 48 56 25
0.191972 -0.0703842 -2.66147 0.810882 -0.242032 0.532814 96 84 86
0.196046 -0.0714993 -2.66662 0.803545 -0.0892695 0.588512 128 92 95
0.200802 -0.0707673 -2.67064 0.65673 -0.460607 0.597115 114 92 92
0.212423 -0.071596 -2.6847 0.75628 -0.0188877 0.653975 117 99 101
0.217791 -0.0709108 -2.69111 0.776434 -0.262034 0.57314 113 91 96
0.231586 -0.0704972 -2.70502 0.745114 0.00161237 0.666935 117 86 87
0.243506 -0.0698249 -2.71829 0.683516 -0.275347 0.67601 136 94 95
0.250818 -0.0711024 -2.72655 0.746953 -0.195949 0.635347 102 89 89
0.254057 -0.0695915 -2.72952 0.748338 -0.209692 0.6293 131 107 106
0.259253 -0.070669 -2.73613 0.710284 -0.070618 0.700364 114 100 101
0.264228 -0.0693845 -2.74146 0.715755 -0.125528 0.686977 124 110 109
0.268755 -0.0703564 -2.74725 0.71679 -0.139485 0.683195 124 105 104
0.271853 -0.0690349 -2.75073 0.728731 -0.185561 0.65918 123 112 113
0.276937 -0.0702702 -2.75486 0.700265 -0.110341 0.705304 123 106 103
0.292649 -0.0694796 -2.77111 0.717729 -0.0126333 0.696208 131 104 108
0.298843 -0.0712942 -2.77826 0.667923 -0.175789 0.723171 119 115 112
0.303432 -0.0688891 -2.78347 0.702395 -0.206493 0.681177 128 105 109
0.303586 -0.0687863 -2.78502 0.671632 0.01477 0.740738 134 107 109
0.309358 -0.0704104 -2.79005 0.677463 -0.124407 0.72496 127 104 111
0.315854 -0.0679447 -2.7971 0.610457 -0.114309 0.783757 125 117 117
0.190833 -0.0733676 -2.66114 0.74403 -0.340662 0.574777 119 100 100
0.199502 -0.0735431 -2.66961 0.805449 -0.233879 0.544566 136 93 91
0.204852 -0.0723087 -2.67633 0.753138 0.136613 0.643521 98 98 99
0.216415 -0.0745426 -2.68946 0.801871 -0.161161 0.575352 134 93 92
0.244527 -0.07272 -2.71973 0.654842 0.408413 0.63591 116 109 108
0.248148 -0.0725695 -2.72268 0.720721 -0.0360802 0.692285 115 105 106
0.252504 -0.0738211 -2.72833 0.750933 -0.204902 0.627785 142 100 101
0.255461 -0.0724829 -2.73163 0.739057 -0.243596 0.628058 124 103 106
0.258816 -0.0746643 -2.73482 0.706431 -0.144929 0.692785 119 105 102
0.26345 -0.0735228 -2.74016 0.701848 -0.141739 0.698083 134 114 110
0.267801 -0.074614 -2.74478 0.709235 -0.119349 0.694797 122 111 110
0.273958 -0.0718043 -2.75227 0.702962 -0.15011 0.695207 109 100 97
0.276375 -0.0745671 -2.75434 0.731831 -0.0548607 0.679274 144 101 104
0.286469 -0.0744198 -2.76355 0.620937 -0.444434 0.645691 118 107 113
0.289366 -0.0719119 -2.76626 0.69928 0.0190117 0.714595 114 97 96
0.292371 -0.0742842 -2.76973 0.719604 0.00496231 0.694367 131 96 103
0.295684 -0.0718577 -2.77468 0.731855 0.0136999 0.681323 113 98 102
0.305677 -0.0721233 -2.78657 0.677282 -0.196605 0.708968 116 101 101
0.183703 -0.0750101 -2.65351 0.799529 0.107222 0.590979 116 85 90
0.198589 -0.0770039 -2.67045 0.78578 0.21901 0.578433 119 103 102
0.212287 -0.0749119 -2.68406 0.815708 -0.0204694 0.578101 117 97 99
0.214091 -0.076791 -2.68683 0.812936 -0.105287 0.572756 107 93 95
0.223642 -0.0746718 -2.69724 0.752291 0.157576 0.639709 121 102 101
0.249671 -0.0752867 -2.72582 0.74827 -0.224485 0.624259 137 104 104
0.254061 -0.0766476 -2.73025 0.722836 -0.29272 0.625957 121 92 94
0.269919 -0.0771167 -2.74675 0.700884 -0.0988901 0.706386 106 99 101
0.273788 -0.0766289 -2.75038 0.430272 -0.140321 0.891726 131 95 100
0.290274 -0.0775147 -2.768 0.729976 -0.0872376 0.677883 112 91 93
0.298228 -0.07716 -2.7786 0.620832 0.358549 0.697144 118 96 97
0.301968 -0.0777945 -2.78163 0.669053 -0.13079 0.731616 114 98 95
0.308442 -0.0752558 -2.78986 0.663093 -0.00717166 0.748503 131 111 111
0.535998 -0.0795802 -3.03883 0.343769 0.0482289 0.937815 58 62 34
0.164777 -0.0785025 -2.63585 0.812581 0.344007 0.470501 102 118 74
0.182082 -0.0788484 -2.65073 0.815842 -0.0595212 0.575204 128 89 92
0.182039 -0.0787027 -2.64983 0.811755 -0.0225543 0.583562 127 89 92
0.190839 -0.0788003 -2.66131 0.692866 0.386973 0.608431 111 97 96
0.203038 -0.0798284 -2.67465 0.794525 -0.0446948 0.605585 135 89 90
0.205076 -0.0774999 -2.67555 0.779088 0.284948 0.558414 129 98 99
0.209962 -0.0792399 -2.68247 0.756914 -0.0998092 0.645847 141 93 91
0.207888 -0.0790743 -2.67564 0.781644 -0.0544388 0.621345 143 94 94
0.207786 -0.0790896 -2.67561 0.781831 -0.0538784 0.621158 144 94 94
0.212569 -0.0776436 -2.68369 0.772109 0.0663915 0.632013 128 94 97
0.216295 -0.0800962 -2.68867 0.785652 -0.223633 0.576836 133 96 96
0.247518 -0.0781625 -2.72209 0.669959 -0.292092 0.682523 128 101 106
0.252015 -0.0807644 -2.72811 0.740014 0.229883 0.632087 141 103 102
0.261776 -0.0797764 -2.73802 0.734544 -0.141797 0.66358 138 110 109
0.287262 -0.0797013 -2.7646 0.739386 -0.00573268 0.673257 137 94 97
0.293468 -0.0797817 -2.77237 0.733887 -0.010364 0.679192 111 102 101
0.29608 -0.0802226 -2.77511 0.691638 0.179446 0.699597 109 100 98
0.308306 -0.0817871 -2.78938 0.720073 -0.0073157 0.69386 116 101 103
0.304853 -0.0791338 -2.78471 0.717357 -0.0454335 0.695223 116 96 100
0.325446 -0.0814659 -2.80659 0.66612 -0.252933 0.701647 115 104 105
0.164153 -0.0804289 -2.63173 0.785662 0.163023 0.596791 105 115 63
0.165688 -0.0811853 -2.63591 0.760568 0.447969 0.469957 79 93 53
0.175048 -0.0818802 -2.63673 0.801804 -0.264773 0.535729 86 89 57
0.183908 -0.0812234 -2.65296 0.814098 -0.0699319 0.576501 104 84 86
0.185984 -0.0803179 -2.65648 0.79536 -0.183375 0.577733 129 92 98
0.195791 -0.082541 -2.66554 0.802321 -0.156691 0.575959 104 96 98
0.203849 -0.0827109 -2.6747 0.750624 0.180826 0.635504 104 92 93
0.206145 -0.0827093 -2.6754 0.770585 -0.14199 0.621319 101 94 94
0.209896 -0.082519 -2.68223 0.738117 0.206763 0.642209 98 91 91
0.267767 -0.0821727 -2.74397 0.731073 0.0179451 0.682064 116 110 112
0.2943 -0.0835145 -2.77397 0.707226 0.225619 0.670021 107 100 99
0.2978 -0.0850133 -2.77688 0.719731 0.0843111 0.689115 110 101 102
0.302595 -0.0828571 -2.78379 0.674528 0.131337 0.726473 131 97 101
0.305862 -0.0846869 -2.7873 0.713333 0.143768 0.68592 122 101 103
0.328176 -0.0847873 -2.81025 0.669034 -0.145972 0.728757 108 98 97
0.329453 -0.0851035 -2.8118 0.647981 0.133228 0.749914 111 98 97
0.163049 -0.0820399 -2.63018 0.860395 0.210051 0.464327 86 100 50
0.1765 -0.0836973 -2.63705 0.84059 -0.19456 0.505524 117 75 71
0.186229 -0.0826456 -2.6591 0.622982 -0.497046 0.604019 114 90 94
0.192312 -0.0848208 -2.66237 0.813406 -0.219904 0.538529 104 90 90
0.191157 -0.0828444 -2.66136 0.780349 0.0274784 0.62474 107 99 99
0.199137 -0.0827513 -2.67023 0.75211 0.207392 0.625555 97 91 93
0.202591 -0.0827368 -2.67216 0.746609 0.388644 0.539936 103 92 94
0.204125 -0.0851198 -2.67267 0.576096 0.557459 0.59779 134 94 95
0.208554 -0.0846182 -2.68014 0.726079 0.257405 0.637614 112 97 97
0.213117 -0.0845172 -2.68414 0.734033 -0.18338 0.653886 140 95 96
0.215235 -0.083382 -2.68786 0.728077 -0.248979 0.638681 126 100 98
0.228682 -0.084695 -2.70208 0.707371 0.404785 0.579462 128 119 121
0.24791 -0.0868379 -2.72248 0.715486 0.340282 0.610155 114 103 104
0.253303 -0.0848436 -2.73002 0.734593 0.22812 0.63901 121 114 115
0.256243 -0.0861941 -2.7328 0.740226 0.238472 0.628647 124 118 121
0.265804 -0.0871243 -2.74228 0.733279 -0.20515 0.648241 135 103 108
0.265209 -0.0842676 -2.74191 0.760346 -0.00088574 0.649517 120 105 105
0.272914 -0.0872789 -2.75041 0.677819 0.222136 0.700869 128 110 109
0.27127 -0.0845666 -2.74899 0.736535 -0.119203 0.665813 110 103 102
0.294674 -0.0879611 -2.77263 0.718597 0.132816 0.682626 129 105 108
0.299955 -0.0858781 -2.78021 0.688966 -0.182231 0.701511 116 105 103
0.303452 -0.0879443 -2.78407 0.719524 0.116565 0.684615 128 110 111
0.303451 -0.0876548 -2.7843 0.721026 0.102949 0.685218 129 110 111
0.32294 -0.08769 -2.80422 0.70538 -0.0129077 0.708712 122 106 106
0.323239 -0.0866082 -2.80508 0.661351 -0.265367 0.701566 117 108 108
0.37042 -0.0870339 -2.85454 0.592556 -0.103439 0.79886 128 104 106
0.126482 -0.0853576 -2.63758 0.812128 -0.417406 0.407701 106 122 62
0.173123 -0.086895 -2.63869 0.801285 0.0512905 0.596081 74 67 44
0.176301 -0.0869078 -2.63945 0.862737 0.0899164 0.497594 130 100 82
0.180995 -0.0848459 -2.65033 0.801358 0.0925558 0.590981 107 85 88
0.193374 -0.0867948 -2.6638 0.776547 0.0468038 0.628318 98 92 92
0.198232 -0.0873989 -2.66887 0.781741 0.066892 0.620005 92 87 88
0.199995 -0.0858236 -2.67022 0.487049 -0.17201 0.856269 119 91 91
0.21077 -0.0857219 -2.68245 0.765053 -0.221594 0.604641 118 98 99
0.214704 -0.0865509 -2.68457 0.714497 -0.247964 0.654223 136 92 97
0.23097 -0.0863633 -2.70356 0.731149 -0.0900418 0.676249 119 114 113
0.250733 -0.0896525 -2.72653 0.760481 0.00839955 0.649305 114 101 101
0.253986 -0.0889975 -2.73018 0.714862 -0.173062 0.677512 105 101 105
0.251706 -0.0876071 -2.72852 0.734025 0.207221 0.646736 118 108 110
0.259267 -0.0874713 -2.73574 0.732512 0.261803 0.628399 116 100 100
0.263053 -0.0888059 -2.73997 0.739587 -0.188273 0.646192 123 98 100
0.267986 -0.0895035 -2.74464 0.753951 0.00239142 0.656927 114 105 107
0.274047 -0.0906646 -2.75189 0.739044 0.00404972 0.673644 118 100 99
0.279018 -0.090285 -2.75626 0.747121 0.0532817 0.662549 126 100 101
0.28507 -0.0907087 -2.76306 0.740752 0.0617814 0.668931 115 101 101
0.287791 -0.0887985 -2.76493 0.717575 -0.00778257 0.696438 102 101 99
0.292093 -0.0905141 -2.76975 0.604126 -0.128327 0.786488 117 104 106
0.300775 -0.090954 -2.78019 0.710542 0.0424203 0.702375 116 113 117
0.174599 -0.0882612 -2.64016 0.819039 -0.192677 0.540417 111 89 63
0.177224 -0.0889613 -2.6407 0.783526 -0.349802 0.513543 91 81 79
0.17866 -0.0881005 -2.64584 0.791472 -0.329147 0.515009 87 80 79
0.180701 -0.0888719 -2.65031 0.786041 -0.0783384 0.61319 106 97 99
0.187218 -0.0880547 -2.6568 0.779102 -0.0724255 0.622699 100 86 87
0.192553 -0.0888801 -2.66315 0.773304 0.123482 0.621895 113 97 94
