ply
format ascii 1.0
element vertex 716
property float x
property float y
property float z
property float nx
property float ny
property float nz
property uchar diffuse_red
property uchar diffuse_green
property uchar diffuse_blue
end_header
-0.334694 0.593294 -8.46997 0.248778 -0.0885144 0.964508 8 8 8
-0.331849 0.591894 -8.47422 -0.224042 -0.244901 0.943307 8 6 7
-0.325608 0.592325 -8.4704 0.146347 -0.0518028 0.987876 7 6 6
-0.318633 0.592475 -8.46804 0.167362 0.265006 0.949612 7 7 8
-0.297938 0.593637 -8.47152 0.0923956 0.658565 0.74683 8 7 7
-0.30042 0.589217 -8.47064 -0.0485711 0.201722 0.978238 9 8 7
-0.293204 0.591099 -8.47065 0.143885 0.676251 0.722483 7 7 6
-0.289418 0.593689 -8.47584 -0.141609 0.621949 0.770147 8 7 6
-0.282951 0.593609 -8.47644 -0.296962 0.337481 0.893264 8 7 6
-0.276932 0.591852 -8.47947 -0.155235 0.290544 0.944186 7 6 6
-0.272009 0.591852 -8.47863 -0.419305 0.619084 0.664016 7 7 7
-0.26649 0.591225 -8.48597 0.38991 -0.315127 0.865255 7 6 6
-0.258713 0.590682 -8.49009 0.328672 -0.322301 0.887748 8 6 9
-0.24443 0.5909 -8.49509 0.344075 -0.264043 0.901051 8 6 9
-0.230175 0.591665 -8.49619 0.236749 -0.213558 0.94781 9 6 7
-0.223389 0.591803 -8.4976 0.296749 -0.130841 0.945949 9 7 6
-0.138005 0.581139 -8.09022 -0.566207 0.465737 0.680073 146 216 158
-0.135278 0.583304 -8.08936 -0.435699 0.504254 0.745583 155 222 167
-0.131348 0.580882 -8.08619 -0.319183 0.63737 0.701343 142 215 154
-0.130223 0.58089 -8.08658 -0.271038 0.645498 0.714052 141 215 153
-0.126634 0.579751 -8.08519 -0.243893 0.597296 0.764038 126 207 136
-0.127039 0.580977 -8.08162 -0.376722 0.673037 0.636476 135 211 146
-0.113856 0.579989 -8.06098 -0.484884 0.368452 0.793177 123 200 134
-0.10908 0.579181 -8.05864 -0.296195 0.278129 0.913735 125 201 136
-0.0971046 0.580988 -8.06134 -0.237233 0.732716 0.637847 124 208 136
-0.0946031 0.581014 -8.05811 -0.270932 0.79282 0.545923 112 196 124
-0.0900721 0.578801 -8.05683 0.169263 0.464338 0.869333 124 207 135
-0.0873482 0.581271 -8.05054 -0.387283 0.344534 0.855165 134 216 148
-0.0577728 0.577796 -8.04414 -0.441878 0.340987 0.829742 150 214 162
-0.0548453 0.578305 -8.04284 -0.184562 0.419127 0.888971 155 216 168
-0.0493506 0.578125 -8.04306 0.0405551 0.29777 0.953776 157 221 172
-0.0346385 0.576172 -8.04132 0.256282 0.783204 0.56649 138 216 157
-0.0304215 0.577999 -8.0399 -0.24432 0.669257 0.701714 150 223 167
-0.0232776 0.578404 -8.04349 -0.0812073 0.466063 0.881017 136 219 153
-0.0151763 0.577368 -8.0478 -0.193524 0.0355141 0.980453 149 227 166
-0.0116799 0.57675 -8.04869 0.678768 0.349452 0.645877 138 221 154
-0.007962 0.578198 -8.04953 0.11096 0.556418 0.82346 143 222 159
-0.00397412 0.578674 -8.05275 0.187745 0.431562 0.88233 142 222 157
-0.00549217 0.575583 -8.05068 0.408787 0.637731 0.652834 137 219 152
0.00137488 0.578601 -8.05548 0.258441 0.801686 0.538988 142 221 156
5.34001e-005 0.57572 -8.05382 0.188256 0.746854 0.637784 138 218 152
0.00856308 0.575513 -8.05654 0.0223853 0.406065 0.91357 148 215 161
0.0131716 0.578122 -8.06227 0.147331 0.718453 0.679793 145 218 159
0.0127741 0.578276 -8.06258 0.187306 0.716594 0.67187 144 219 156
0.0123965 0.577586 -8.05808 -0.411714 0.567358 0.71316 160 222 174
0.0138417 0.575134 -8.05774 -0.132089 0.721031 0.680196 140 215 156
0.0223556 0.57656 -8.06011 0.34774 0.614032 0.708549 142 219 156
0.0260598 0.577023 -8.06224 0.172008 0.628315 0.758705 144 221 159
0.0303801 0.57535 -8.06215 0.157988 0.592558 0.789882 146 222 161
0.0342945 0.576723 -8.06326 0.221323 0.42229 0.879026 151 224 165
0.0381495 0.576713 -8.06449 0.768155 0.111393 0.630499 148 225 159
0.0403206 0.575272 -8.06672 0.517242 -0.626328 0.583245 164 234 179
0.0448837 0.576526 -8.07099 0.653737 0.431738 0.621474 153 227 165
0.0583606 0.573758 -8.07853 0.500155 0.625433 0.598898 162 229 179
0.127931 0.577751 -8.30985 0.529381 0.247616 0.811445 153 95 62
0.124141 0.578216 -8.30816 0.296281 0.19572 0.934832 157 109 85
0.131078 0.57657 -8.31215 0.66757 0.194499 0.718693 152 77 33
0.233969 0.575298 -8.49405 0.483971 -0.590942 0.645414 12 10 10
0.239699 0.573084 -8.49506 0.210626 -0.63687 0.741643 11 8 10
0.238226 0.574098 -8.50257 -0.281592 0.477318 0.83239 10 8 9
0.248299 0.572229 -8.50759 0.137599 0.00761769 0.990459 10 9 9
0.251298 0.576628 -8.51023 0.0151746 0.595538 0.803184 9 8 9
0.245468 0.576578 -8.50518 -0.081734 0.567759 0.819127 9 7 9
0.257846 0.572231 -8.50639 0.140395 -0.0424579 0.989185 11 11 11
0.252963 0.572231 -8.50633 0.168506 -0.0861537 0.981928 11 10 11
0.261995 0.572236 -8.5026 0.145967 0.00702398 0.989265 10 9 8
0.266201 0.571965 -8.50532 0.167494 0.0853373 0.982173 12 11 9
0.271732 0.572445 -8.50545 0.170719 0.0540435 0.983836 12 12 11
0.280647 0.571993 -8.50702 0.122324 0.0483444 0.991312 14 15 14
0.27649 0.572399 -8.50353 0.166092 -0.396015 0.903098 10 11 9
0.285266 0.571856 -8.5086 0.114031 -0.0334471 0.992914 21 23 24
0.290051 0.571712 -8.51389 0.170774 0.447713 0.877718 15 17 18
0.288259 0.575904 -8.51129 0.180092 0.167404 0.9693 11 10 10
0.301757 0.573404 -8.52921 0.317894 0.709796 0.628597 12 13 14
0.321065 0.571357 -8.53327 -0.00577457 0.816868 0.576795 53 59 64
0.347302 0.573759 -8.53424 0.30676 -0.464768 0.830596 67 75 86
0.354883 0.57376 -8.53734 0.288395 -0.156342 0.944662 80 91 104
0.362044 0.574005 -8.53587 0.230426 0.0295564 0.972641 97 110 126
0.377081 0.573444 -8.54232 0.175591 -0.0445212 0.983456 130 146 171
0.385629 0.572876 -8.54391 0.182301 -0.0480592 0.982068 143 160 184
0.397452 0.571604 -8.54343 0.30331 -0.36824 0.878864 118 129 148
0.398966 0.571321 -8.48614 0.12832 0.640895 0.756828 46 50 57
0.408477 0.569739 -8.48767 -0.321864 0.630906 0.705947 16 18 17
-0.463208 0.592268 -8.42201 0.356808 0.746261 0.561945 13 18 28
-0.433572 0.589806 -8.42812 0.27361 0.441155 0.854705 10 9 9
-0.433541 0.590572 -8.41995 0.26208 0.570291 0.778513 12 9 12
-0.431904 0.590504 -8.42731 0.249723 0.46625 0.848675 10 9 8
-0.429244 0.589563 -8.43219 0.261733 0.309488 0.914173 11 9 8
-0.421788 0.587521 -8.44271 0.954207 0.211012 0.212044 9 8 11
-0.415497 0.587611 -8.44531 0.0682731 -0.325951 0.942918 10 9 10
-0.411076 0.588073 -8.4488 0.540333 -0.674168 0.503526 10 8 9
-0.408534 0.588479 -8.4563 0.423087 -0.726517 0.541453 13 8 10
-0.387205 0.587665 -8.45181 0.0303149 -0.268783 0.962723 9 12 13
-0.380607 0.590614 -8.45789 -0.499234 -0.343772 0.795353 6 7 8
-0.380607 0.590614 -8.45789 -0.499234 -0.343772 0.795353 6 7 8
-0.347101 0.584681 -8.38339 -0.517486 -0.306451 0.798934 7 6 6
-0.351472 0.59026 -8.471 0.588792 -0.386639 0.709813 12 20 31
-0.344699 0.589794 -8.47701 0.191214 -0.645076 0.739807 7 6 6
-0.313444 0.584967 -8.38404 0.271505 0.719541 0.639176 7 7 6
-0.313749 0.584616 -8.38262 0.367667 0.57256 0.7328 7 7 5
-0.316463 0.584866 -8.39212 0.574833 0.701518 0.421237 7 7 6
-0.309004 0.585431 -8.38635 0.344796 0.547095 0.76276 7 7 6
-0.308258 0.587155 -8.40263 0.322769 0.418591 0.848882 8 7 7
-0.300925 0.587107 -8.4014 0.229511 0.443388 0.866448 8 7 6
-0.294008 0.587081 -8.40109 0.0117735 0.491696 0.870687 8 8 6
-0.291519 0.586848 -8.45879 -0.266747 0.40752 0.873369 10 11 11
-0.291828 0.58687 -8.46025 -0.228704 0.523333 0.820864 10 11 10
-0.282348 0.586806 -8.453 -0.029764 0.798286 0.601542 10 11 8
-0.27588 0.584364 -8.45305 -0.0297926 0.802748 0.595574 10 10 8
-0.142746 0.576256 -8.08699 -0.621193 0.422522 0.659996 134 207 147
-0.137223 0.578991 -8.08638 -0.433639 0.53277 0.726714 145 216 157
-0.140131 0.578034 -8.09003 -0.671682 0.382932 0.634198 141 213 153
-0.134016 0.578004 -8.08471 -0.388065 0.472837 0.791095 137 212 150
-0.130291 0.577993 -8.08292 -0.362383 0.594717 0.717628 131 207 143
-0.12733 0.579052 -8.07517 -0.314032 0.36903 0.874757 138 213 152
-0.111858 0.578722 -8.0613 -0.483047 0.367681 0.794655 119 198 130
-0.101963 0.57638 -8.05621 -0.223595 0.586307 0.77862 115 193 126
-0.104316 0.575575 -8.06157 -0.236799 0.674655 0.699119 127 202 143
-0.0600129 0.574248 -8.04414 -0.277573 0.251968 0.927074 134 200 145
-0.0568828 0.575162 -8.0421 -0.208663 0.380769 0.900819 148 210 160
-0.0517734 0.575636 -8.03935 -0.281832 0.446868 0.849046 150 208 163
-0.0483943 0.574221 -8.03823 -0.126328 0.649908 0.74944 146 208 159
-0.0438705 0.576283 -8.04065 -0.391392 0.330844 0.858694 157 218 171
-0.0452336 0.576056 -8.04235 0.000546396 0.563826 0.825893 148 214 163
-0.0422533 0.573236 -8.03719 -0.295282 0.423521 0.85641 158 218 171
-0.0377759 0.57491 -8.03943 -0.135395 0.633014 0.762208 143 217 161
-0.0343389 0.57362 -8.03782 -0.0824988 0.758899 0.645961 151 210 165
-0.0292653 0.57493 -8.03715 -0.388292 0.463957 0.796224 152 217 166
-0.0245833 0.572711 -8.04129 0.0837011 0.632772 0.769801 136 213 150
-0.024144 0.57576 -8.04113 -0.182023 0.457735 0.870257 135 216 152
-0.0181585 0.572921 -8.04267 0.12521 0.537342 0.834018 130 213 147
-0.012754 0.574198 -8.04647 -0.196333 0.0481283 0.979355 143 224 161
-0.00939546 0.574806 -8.0499 0.639653 0.449914 0.623235 136 219 153
-0.00878113 0.572241 -8.04526 -0.152458 0.632457 0.759444 134 216 151
-0.003827 0.575109 -8.05095 0.153064 0.205948 0.966518 137 219 152
-2.54873e-005 0.573139 -8.04962 0.0176032 0.369942 0.928888 135 218 151
0.00356857 0.574882 -8.04978 -0.297064 0.210387 0.931392 147 223 162
0.0225994 0.573505 -8.05717 0.445162 0.529986 0.721765 138 214 154
0.0259905 0.574261 -8.05943 0.12035 0.530669 0.838991 143 219 158
0.0265082 0.570953 -8.05674 0.028657 0.508922 0.860336 141 216 156
0.0292512 0.57224 -8.05894 0.190598 0.4748 0.859208 144 219 158
0.0327633 0.572182 -8.06096 0.24865 0.442808 0.861449 142 218 155
0.0361402 0.572128 -8.06314 -0.0463357 0.501522 0.863903 147 219 163
0.0412902 0.570376 -8.06426 0.00284648 0.448087 0.893985 150 219 165
0.0506995 0.573225 -8.07259 0.419548 0.657723 0.625603 156 225 169
0.0533484 0.570356 -8.07276 0.428061 0.613963 0.663185 153 221 166
0.0562977 0.570657 -8.07496 0.468849 0.560729 0.682469 155 224 170
0.0592905 0.571154 -8.07703 0.433232 0.627528 0.64693 155 224 170
0.209054 0.56902 -8.49734 0.134739 0.0341738 0.990292 15 14 12
0.214368 0.569163 -8.49704 0.0684546 -0.22176 0.972695 12 10 10
0.220251 0.569328 -8.49511 0.125558 -0.375325 0.91835 14 14 14
0.224268 0.569334 -8.49661 0.136019 -0.110699 0.984502 12 12 10
0.230663 0.565601 -8.49941 0.223363 0.0783814 0.971579 18 24 23
0.228655 0.56979 -8.49816 0.117247 -0.347319 0.930388 14 13 11
0.234339 0.56942 -8.50001 0.184092 -0.603453 0.775857 15 17 14
0.240061 0.567216 -8.50095 0.205653 -0.647134 0.734115 12 14 13
0.250124 0.567855 -8.50463 0.254342 -0.422757 0.86982 20 23 22
0.245286 0.56789 -8.50392 0.272634 -0.423774 0.863763 12 13 12
0.260208 0.567909 -8.50607 0.290419 -0.643675 0.708053 22 26 27
0.268489 0.567636 -8.50599 0.198009 -0.0124041 0.980122 36 41 44
0.273305 0.567627 -8.50706 0.164591 0.0148511 0.98625 42 49 55
0.277992 0.567613 -8.50763 0.0319408 0.384544 0.922554 55 60 68
0.283067 0.567758 -8.50723 0.132496 0.136818 0.981695 77 84 93
0.287639 0.567682 -8.51007 0.149203 0.024695 0.988498 90 97 107
0.292768 0.568097 -8.51128 0.131787 -0.0566059 0.989661 90 98 109
0.304042 0.567062 -8.52584 0.200339 -0.152516 0.967783 124 136 151
0.311361 0.567724 -8.53213 0.0781908 0.604533 0.792734 112 123 137
0.317499 0.564594 -8.53012 0.127834 0.464317 0.876395 129 143 160
0.322817 0.564613 -8.52759 -0.0662454 0.642393 0.763507 107 119 134
0.330779 0.56805 -8.53011 0.048916 0.809629 0.5849 148 159 184
0.359292 0.564487 -8.52762 0.207888 0.70123 0.681952 37 47 60
0.369897 0.566274 -8.53468 0.237792 0.746671 0.621238 51 63 79
0.353976 0.562988 -8.49042 0.0680147 0.709012 0.701908 18 23 27
0.362143 0.565959 -8.49381 -0.00962956 0.848767 0.528679 33 37 41
0.390007 0.565932 -8.54676 0.324826 -0.399626 0.857197 37 48 63
0.397462 0.564986 -8.54173 0.303531 -0.258284 0.917147 14 16 17
0.380188 0.562282 -8.49297 0.0823783 0.78772 0.610501 13 13 7
0.403131 0.564029 -8.48325 -0.254164 0.16142 0.953595 8 11 8
-0.432896 0.584172 -8.45306 0.0246736 -0.476762 0.878686 8 7 7
-0.398864 0.58177 -8.45654 0.322545 -0.141592 0.935904 12 11 12
-0.393555 0.581785 -8.45943 0.146226 0.0384 0.988506 12 11 12
-0.385858 0.581778 -8.45869 0.0299649 -0.329571 0.943655 15 13 14
-0.378647 0.581925 -8.4584 -0.0243153 -0.454316 0.890509 15 13 13
-0.316219 0.581833 -8.38537 0.280577 0.844573 0.45604 7 7 6
-0.311023 0.581655 -8.38715 0.279064 0.735801 0.617026 7 7 6
-0.305612 0.578499 -8.38678 0.357924 0.573269 0.737057 16 18 21
-0.305353 0.578348 -8.38715 0.353275 0.589168 0.72669 17 18 21
-0.304397 0.582059 -8.40159 0.33067 0.309544 0.891538 9 9 7
-0.297601 0.581973 -8.40033 0.33558 0.250601 0.908067 9 9 7
-0.305551 0.578666 -8.45575 0.103676 0.861146 0.497674 39 43 42
-0.287606 0.580145 -8.45247 -0.0325393 0.799278 0.60008 22 27 26
-0.278742 0.577259 -8.44886 0.0978547 0.863047 0.495554 36 41 35
-0.272188 0.58142 -8.44406 0.425687 0.203065 0.881791 10 10 8
-0.268676 0.576103 -8.44332 0.0674009 0.119823 0.990505 63 68 64
-0.266102 0.581397 -8.44444 0.0874508 0.0369511 0.995483 11 11 8
-0.145641 0.575846 -8.08962 -0.627788 0.498197 0.598065 141 209 153
-0.148259 0.573635 -8.1 -0.394723 0.505094 0.767511 159 218 171
-0.139203 0.576015 -8.08513 -0.636154 0.358465 0.683235 129 205 142
-0.138054 0.572572 -8.08447 -0.518136 0.320699 0.792898 131 205 143
-0.132979 0.575242 -8.0811 -0.655765 0.258358 0.709382 128 204 141
-0.136094 0.575722 -8.08521 -0.345322 0.270312 0.898713 135 209 147
-0.129747 0.575382 -8.08106 -0.789117 0.169559 0.590377 125 205 139
-0.129886 0.572821 -8.07487 -0.610821 0.325327 0.721845 127 201 141
-0.119577 0.574589 -8.06158 -0.809245 -0.153984 0.566932 113 187 123
-0.115986 0.574706 -8.05824 -0.648564 -0.325511 0.688046 112 190 122
-0.111551 0.572522 -8.0557 -0.615307 -0.280208 0.736805 110 187 123
-0.105854 0.574112 -8.05528 -0.500062 0.443578 0.743758 107 186 119
-0.0579803 0.571592 -8.04144 -0.40555 0.217026 0.887935 139 204 150
-0.0605026 0.570842 -8.04374 -0.80405 -0.0725413 0.59012 131 197 141
-0.0554277 0.572361 -8.04015 -0.151323 0.476735 0.865925 143 205 155
-0.0515319 0.57109 -8.0385 -0.134642 0.729665 0.670419 143 205 156
-0.0499305 0.571142 -8.03531 -0.320876 0.556168 0.766626 144 204 157
-0.0459859 0.571146 -8.03456 0.0475698 0.347019 0.936651 133 207 150
-0.0423442 0.570114 -8.03514 -0.40137 0.413505 0.817261 148 209 160
-0.0393361 0.571815 -8.03646 -0.0883345 0.575202 0.813228 147 212 162
-0.0360955 0.569529 -8.0364 0.317356 0.504394 0.803039 129 204 145
-0.0324383 0.570526 -8.03762 0.256893 0.420308 0.870257 131 208 147
-0.0277638 0.571456 -8.0394 0.222145 0.514066 0.828485 131 211 147
-0.0286527 0.571826 -8.0385 0.140414 0.458265 0.877654 135 211 150
-0.0215377 0.571653 -8.0411 0.18671 0.616085 0.765231 129 211 144
-0.0181623 0.569791 -8.04022 0.162506 0.595865 0.786471 132 210 147
-0.0146356 0.568483 -8.03826 0.0675494 0.73516 0.674519 129 206 144
-0.0111007 0.568202 -8.0476 -0.206351 0.444029 0.871927 130 215 148
-0.0145952 0.571033 -8.04186 -0.0531695 0.411747 0.909746 129 213 148
-0.00671742 0.569599 -8.04865 -0.0723673 0.588249 0.805436 133 218 150
0.0131647 0.568467 -8.04655 0.629897 -0.0985643 0.770399 128 205 141
0.0187683 0.56964 -8.05313 0.189443 0.719124 0.66856 131 206 144
0.0162786 0.568805 -8.04849 0.277883 0.711724 0.645159 132 206 146
0.0223477 0.57039 -8.05541 0.219664 0.712429 0.666478 133 207 147
0.0223213 0.567294 -8.05216 0.37476 0.614176 0.694509 136 209 149
0.0256704 0.568155 -8.05536 0.417625 0.67983 0.602843 134 208 147
0.0315943 0.569073 -8.05783 0.160693 0.497 0.852742 134 210 149
0.0343177 0.568915 -8.06138 0.524694 0.158843 0.83634 136 211 149
0.0383822 0.569886 -8.06188 0.235551 0.459853 0.856184 142 215 156
0.043216 0.567263 -8.06289 -0.107839 0.351585 0.929924 144 211 160
0.0485845 0.567275 -8.06387 0.450616 0.130656 0.883105 146 212 160
0.0559965 0.567838 -8.07292 0.428319 0.634556 0.643337 151 217 164
0.053507 0.567413 -8.06919 0.497073 0.592521 0.633907 151 216 166
0.059139 0.568241 -8.07501 0.365962 0.515194 0.775014 152 220 166
0.0621636 0.566006 -8.07499 0.464556 0.405041 0.787483 144 211 158
0.0620103 0.569128 -8.07745 0.483444 0.610936 0.626928 151 221 167
0.0648207 0.565949 -8.07776 0.623352 0.365123 0.691461 136 205 149
0.0677117 0.565537 -8.07937 0.677924 0.255501 0.689303 142 208 153
0.202708 0.565111 -8.4934 0.15197 -0.460759 0.874418 11 13 8
0.199883 0.560574 -8.49582 0.159728 -0.107595 0.98128 75 84 90
0.208533 0.560191 -8.49841 0.0992568 0.232435 0.967534 101 113 124
0.211011 0.564558 -8.49839 0.100299 0.0347555 0.99435 20 23 21
0.20628 0.564447 -8.49823 0.0804821 0.159792 0.983864 19 21 18
0.21325 0.56027 -8.49866 0.182741 -0.139263 0.973248 121 135 148
0.216836 0.565 -8.49937 0.137982 0.0691144 0.98802 20 23 20
0.221083 0.565105 -8.50021 0.323265 0.427868 0.844055 21 26 24
0.219057 0.56143 -8.49987 0.0590295 0.433045 0.899437 96 107 116
0.219247 0.560497 -8.49996 0.130468 0.114423 0.984828 127 139 153
0.223532 0.561653 -8.49996 0.15858 0.266268 0.950765 109 120 134
0.225408 0.565253 -8.50076 0.208719 0.19186 0.958972 32 38 38
0.228036 0.561483 -8.50122 0.107686 0.110735 0.987999 120 132 146
0.235182 0.561752 -8.50046 0.200628 -0.292175 0.935084 132 143 158
0.241074 0.561926 -8.50146 0.1966 -0.406319 0.89233 142 152 170
0.246103 0.562877 -8.50481 0.169613 -0.521132 0.836452 113 124 139
0.255903 0.559663 -8.50819 0.21061 -0.326347 0.921489 134 146 162
0.252012 0.562882 -8.50595 0.151703 -0.0444777 0.987425 120 131 144
0.26161 0.558934 -8.51074 0.120283 -0.457533 0.881019 90 100 109
0.259187 0.564567 -8.50707 0.147869 -0.475628 0.867129 100 111 126
0.267478 0.558661 -8.51164 0.0508425 -0.40885 0.911184 93 100 111
0.265334 0.564231 -8.5081 0.0919546 -0.441131 0.892719 132 145 163
0.273573 0.55969 -8.50837 0.115837 -0.376876 0.918992 64 71 78
0.27562 0.563796 -8.50729 -0.0577483 0.484811 0.872711 165 177 198
0.27087 0.563366 -8.5071 0.149951 0.0697683 0.986229 157 170 188
0.281525 0.558009 -8.5112 0.136893 -0.420667 0.896827 32 36 39
0.284505 0.561271 -8.51473 0.226167 -0.526247 0.819703 115 124 139
0.280713 0.563645 -8.50825 0.134784 0.274458 0.952106 164 176 194
0.287933 0.558062 -8.51202 0.0609675 -0.38791 0.919679 30 33 33
0.285257 0.56348 -8.50954 0.117712 0.47626 0.87139 155 168 187
0.290072 0.563492 -8.50994 -0.0503199 0.493096 0.868518 140 153 171
0.293989 0.557395 -8.51438 0.14363 -0.474057 0.8687 29 28 27
0.300391 0.558234 -8.51408 0.107251 -0.0400947 0.993423 30 28 27
0.311742 0.561825 -8.52852 0.130537 0.447656 0.884627 76 83 93
0.309792 0.557501 -8.521 0.327956 -0.0699558 0.942099 29 23 21
0.319485 0.559607 -8.5231 0.0158093 0.666165 0.745637 30 30 29
0.326301 0.556553 -8.52138 0.0311936 0.420847 0.906595 22 18 13
0.370265 0.557217 -8.47739 -0.0234026 0.853467 0.520622 33 28 24
0.377237 0.55682 -8.47654 -0.351261 0.289786 0.890303 42 37 32
0.381146 0.556893 -8.46789 -0.404712 0.367082 0.837531 52 44 38
0.383969 0.558414 -8.47491 -0.100544 0.866062 0.489721 32 28 23
0.393905 0.55811 -8.472 -0.0371916 -0.30808 0.950633 35 31 26
0.403321 0.558346 -8.47487 0.137096 -0.605096 0.78426 37 30 27
0.489538 0.551542 -8.49636 0.0633646 0.318451 0.945819 11 14 10
-0.423463 0.578701 -8.45054 0.111739 -0.565251 0.817316 27 28 33
-0.420785 0.575756 -8.45425 -0.0615698 -0.369604 0.927147 47 47 55
-0.416162 0.575784 -8.45272 -0.133633 -0.249951 0.958993 47 47 55
-0.413083 0.578019 -8.45618 0.644877 -0.00929339 0.76423 25 25 29
-0.388467 0.575817 -8.45806 0.00502108 -0.475194 0.879867 46 45 53
-0.380269 0.575812 -8.45605 -0.0219726 -0.414782 0.909655 44 44 51
-0.339859 0.575221 -8.37936 -0.323289 -0.235206 0.916604 40 46 59
-0.31706 0.575961 -8.38297 -0.0244854 0.615495 0.78776 36 36 42
-0.310933 0.575972 -8.38348 0.10714 0.51451 0.850764 34 35 40
-0.29621 0.572072 -8.39376 0.118415 0.34136 0.932444 40 40 42
-0.294335 0.576972 -8.40006 0.260811 -0.00500089 0.965377 22 23 25
-0.298353 0.576829 -8.45645 -0.229281 0.748182 0.622618 26 36 52
-0.297346 0.571938 -8.45053 0.188389 0.861517 0.471485 26 40 61
-0.285529 0.574302 -8.44238 0.254759 0.717308 0.648511 26 24 27
-0.278799 0.571501 -8.43912 0.0311747 0.717056 0.696318 19 36 54
-0.151239 0.571112 -8.10008 -0.462004 0.540279 0.703314 163 219 175
-0.14746 0.569734 -8.09833 -0.390426 0.378777 0.839104 154 215 166
-0.143358 0.569655 -8.08471 -0.655747 0.277311 0.702207 131 202 143
-0.13435 0.570838 -8.08292 -0.775031 0.10294 0.623482 120 198 133
-0.124781 0.57164 -8.06971 -0.573796 0.225818 0.787251 129 201 141
-0.127736 0.570386 -8.07226 -0.650995 0.116507 0.750088 127 200 140
-0.12303 0.568122 -8.06775 -0.659786 0.407137 0.631602 111 185 123
-0.118195 0.570933 -8.06189 -0.684128 -0.178209 0.707256 122 194 135
-0.114324 0.569514 -8.05852 -0.684206 -0.182996 0.705957 107 179 119
-0.0546951 0.569104 -8.0375 0.0150783 0.435656 0.899987 136 205 150
-0.0513379 0.566208 -8.03407 -0.288828 0.530352 0.79706 130 195 142
-0.0537507 0.567343 -8.0314 0.155096 0.632122 0.759188 127 198 140
-0.0481725 0.568058 -8.03535 -0.150291 0.561591 0.813651 131 194 144
-0.0420601 0.566098 -8.03648 -0.00508004 0.202943 0.979177 112 190 129
-0.0376408 0.566149 -8.03629 0.13808 0.422399 0.895831 122 196 136
-0.0331422 0.567107 -8.03675 0.33705 0.595449 0.729272 123 200 138
-0.0298863 0.56836 -8.03853 0.237617 0.50398 0.830387 126 205 142
-0.0275712 0.565328 -8.03738 0.178393 0.34424 0.921778 113 193 128
-0.0255753 0.568415 -8.03846 0.196973 0.412984 0.889183 124 205 140
-0.0237332 0.565352 -8.03806 0.166723 0.147946 0.974841 117 198 132
-0.0215303 0.568442 -8.03883 0.193255 0.430715 0.881554 123 204 139
-0.0194241 0.56541 -8.03799 0.266196 0.544465 0.795423 117 197 132
-0.0157676 0.567307 -8.03729 0.0718686 0.552314 0.830533 129 203 143
-0.0103928 0.565745 -8.0489 0.0939495 0.72135 0.686169 129 213 143
-0.00708324 0.565442 -8.04437 0.180537 0.740153 0.64775 125 206 138
-0.00496487 0.567424 -8.04904 0.506563 0.542686 0.66999 130 214 145
0.00162143 0.565787 -8.04565 0.275024 0.420629 0.864542 124 206 139
0.00056304 0.565086 -8.04411 0.166419 0.468768 0.867503 123 204 138
0.00162143 0.565787 -8.04565 0.275024 0.420629 0.864542 124 206 139
0.00653786 0.564131 -8.04543 0.125411 0.387559 0.913274 119 199 134
0.0101111 0.564084 -8.04732 0.248504 0.499269 0.830046 120 196 133
0.0138217 0.565202 -8.04851 0.179443 0.467902 0.865371 121 196 136
0.0187406 0.566609 -8.0505 0.159524 0.476649 0.864499 131 204 146
0.0222539 0.56487 -8.05128 0.274196 0.443483 0.853311 130 203 144
0.0257195 0.564739 -8.05271 0.390533 0.429919 0.814035 129 202 142
0.0285658 0.565627 -8.05552 0.345378 0.539545 0.767857 132 206 145
0.0337109 0.565944 -8.05696 0.225004 0.610316 0.759531 133 206 145
0.0322089 0.563397 -8.05445 0.414826 0.403176 0.815701 130 202 142
0.0367922 0.56368 -8.05739 0.152 0.713176 0.684307 133 204 146
0.0406022 0.564489 -8.05961 0.159633 0.544961 0.823125 138 206 151
0.0445194 0.562634 -8.05802 0.108322 0.642418 0.75866 141 206 154
0.0443017 0.565863 -8.06125 -0.0705818 0.465503 0.882227 144 210 159
0.0501981 0.564319 -8.06438 0.491498 0.474164 0.730478 146 211 160
0.0474606 0.564395 -8.06211 0.32242 0.487848 0.811203 144 210 158
0.0535829 0.564402 -8.06689 0.611309 0.409812 0.67702 145 213 160
0.0558653 0.565037 -8.07047 0.427828 0.52072 0.738792 151 216 164
0.0589314 0.565412 -8.07286 0.501703 0.544008 0.672569 149 214 162
0.0615272 0.562905 -8.07311 0.496691 0.322963 0.805601 147 210 159
0.06428 0.562872 -8.07545 0.606467 0.222164 0.763441 140 206 152
0.0687726 0.56232 -8.07972 0.730281 -0.049558 0.681346 123 192 135
0.0669111 0.562034 -8.07754 0.707952 0.157456 0.688485 133 199 145
0.161243 0.558178 -8.4315 0.728579 -0.00879857 0.684905 95 140 99
0.197171 0.555862 -8.49657 0.178859 -0.122031 0.976278 161 180 190
0.203194 0.557604 -8.50253 0.293361 0.215388 0.931422 117 130 142
0.202004 0.554956 -8.49713 0.153378 0.016809 0.988025 117 132 140
0.21076 0.555869 -8.49875 0.174958 -0.0995283 0.979532 127 141 152
0.215874 0.555905 -8.49956 0.185901 -0.0675607 0.980243 115 129 138
0.22104 0.557258 -8.50024 0.157831 -0.0191418 0.987281 140 155 170
0.225792 0.557355 -8.50046 0.103828 0.169703 0.98001 120 133 144
0.230398 0.557164 -8.5015 0.16109 0.0442814 0.985946 98 110 119
0.237524 0.556939 -8.5027 0.256431 -0.287083 0.922944 92 104 114
0.243326 0.557069 -8.50384 0.202725 -0.2708 0.941047 70 79 85
0.245729 0.5571 -8.50549 0.242482 -0.514412 0.822547 85 96 104
0.253121 0.555826 -8.50659 0.0866182 -0.36654 0.926362 40 45 47
0.259152 0.555599 -8.50782 0.0254094 -0.346106 0.937851 35 38 38
0.265306 0.555826 -8.50733 -0.000360012 -0.29108 0.956699 30 31 29
0.270872 0.555127 -8.50933 0.0947829 -0.366485 0.925584 27 25 23
0.266282 0.552861 -8.50613 0.324283 -0.54436 0.773637 31 27 23
0.266282 0.552861 -8.50613 0.324283 -0.54436 0.773637 31 27 23
0.275825 0.554293 -8.51137 0.261213 -0.524487 0.810358 28 23 18
0.283423 0.553184 -8.5116 0.302657 -0.537124 0.787335 33 26 23
0.344048 0.55247 -8.46546 0.0928989 -0.433743 0.896235 93 75 70
0.353001 0.550476 -8.4719 -0.322704 0.564733 0.759565 90 76 70
0.360111 0.554766 -8.47559 -0.0713655 0.663601 0.744675 58 50 46
0.366559 0.551995 -8.469 0.329737 0.0624978 0.942002 75 63 60
0.383538 0.549038 -8.46859 0.200534 0.539265 0.817911 80 69 64
0.389296 0.552126 -8.46737 0.00518361 0.398618 0.917103 67 59 56
0.3987 0.552051 -8.47174 0.0810976 -0.038945 0.995945 81 66 58
0.481145 0.548642 -8.48478 0.0559875 0.279442 0.958529 14 15 9
0.477661 0.54908 -8.48262 0.113496 0.22995 0.966562 15 16 10
0.48069 0.548306 -8.48627 0.0584207 0.291655 0.954738 13 14 8
0.500756 0.548424 -8.4963 0.0593875 0.595884 0.800872 38 36 29
0.500537 0.546741 -8.48715 0.0461698 0.440278 0.896674 40 38 28
-0.40657 0.574621 -8.45307 0.699729 0.0116745 0.714313 53 53 62
-0.313871 0.568542 -8.38347 -0.432379 -0.0394352 0.900829 23 25 23
-0.308793 0.568852 -8.38858 -0.0571745 -0.679089 0.731826 22 24 23
-0.285649 0.568995 -8.43749 -0.00560461 0.85066 0.525686 15 23 36
-0.157185 0.566295 -8.09972 -0.473257 0.631249 0.614453 157 213 169
-0.154295 0.566138 -8.09713 -0.439571 0.400559 0.803946 153 212 166
-0.1543 0.568852 -8.09965 -0.583854 0.556284 0.591323 157 214 169
-0.146785 0.56632 -8.09297 -0.643857 0.16729 0.746634 136 203 149
-0.149776 0.567768 -8.09949 -0.305784 0.219293 0.926502 152 212 164
-0.142158 0.56722 -8.0809 -0.58801 0.383776 0.712012 130 199 143
-0.13933 0.566839 -8.07964 -0.658724 0.184351 0.72945 128 199 141
-0.139345 0.566747 -8.08043 -0.677974 0.212544 0.703688 120 195 133
-0.139406 0.567062 -8.07736 -0.700286 0.0793703 0.709436 117 192 130
-0.134972 0.567176 -8.07835 -0.720411 -0.0768319 0.689278 116 194 129
-0.126698 0.568214 -8.0698 -0.564594 0.410035 0.716313 121 193 134
-0.119741 0.565313 -8.06177 -0.46163 0.286619 0.839492 115 184 128
-0.116243 0.565599 -8.0594 -0.462678 0.0853801 0.882406 113 182 126
-0.109649 0.567154 -8.05617 -0.39561 -0.19484 0.897513 111 185 124
-0.104328 0.567505 -8.05336 -0.368178 0.434701 0.821876 123 198 136
-0.098774 0.564455 -8.04857 -0.478961 0.00288184 0.877832 131 205 146
-0.100432 0.567328 -8.05203 -0.369506 0.381363 0.847365 141 210 155
-0.0536583 0.564097 -8.02874 -0.0888529 0.687322 0.720898 117 177 130
-0.0508413 0.562976 -8.02916 -0.165401 0.829075 0.534113 111 173 126
-0.0484976 0.562793 -8.03233 -0.267404 0.381155 0.884995 116 184 130
-0.0452399 0.563781 -8.03487 -0.165854 0.514589 0.841244 107 180 123
-0.0408862 0.562865 -8.03698 -0.0422406 0.46416 0.884744 111 183 126
-0.0363121 0.562936 -8.03655 0.177504 0.30405 0.935973 108 186 122
-0.0296907 0.562135 -8.03662 0.311196 0.373887 0.873708 110 189 124
-0.025043 0.562235 -8.03592 0.00871348 0.542795 0.83982 121 192 135
-0.01564 0.56323 -8.03691 0.0894656 0.22227 0.970872 114 194 130
-0.0127048 0.561287 -8.03583 -0.173902 0.0426016 0.983841 116 195 131
-0.0120106 0.563475 -8.04111 0.0548686 0.617059 0.785002 118 199 133
-0.0094745 0.561212 -8.04033 0.169158 0.753872 0.634872 113 194 126
-0.0105394 0.563643 -8.04407 0.118666 0.712514 0.69155 120 201 134
-0.00713231 0.561665 -8.04294 0.38068 0.591006 0.711193 114 194 127
-0.00538379 0.561886 -8.03735 0.0285554 0.351164 0.935879 115 195 131
0.00123395 0.562601 -8.04426 0.241627 0.57063 0.784855 119 198 132
0.0101384 0.56072 -8.04511 0.295501 0.558359 0.775187 118 191 133
0.0133866 0.561782 -8.04719 0.331628 0.508975 0.794334 116 189 129
0.0173553 0.561782 -8.04825 0.231034 0.445069 0.865181 115 188 130
0.0208884 0.561741 -8.0498 0.22624 0.344261 0.911208 121 194 137
0.0244706 0.561767 -8.05093 0.400155 0.229599 0.88722 124 197 138
0.0287655 0.56243 -8.05285 0.350906 0.248488 0.902839 125 197 137
0.0344745 0.560484 -8.0541 0.0300578 0.380437 0.924318 130 200 144
0.0415737 0.560202 -8.05449 0.467988 0.393672 0.791208 134 200 146
0.0385528 0.560219 -8.05249 0.227033 0.506951 0.831538 133 200 144
0.0419369 0.561904 -8.05337 0.228143 0.703696 0.672877 136 203 148
0.0495313 0.561403 -8.06163 0.322124 0.445514 0.835316 142 206 154
0.0505326 0.561884 -8.0611 -0.00859749 0.51054 0.859811 144 208 158
0.0578673 0.560798 -8.06926 0.634844 0.388888 0.667637 137 203 151
0.0606505 0.560063 -8.07114 0.569203 0.224987 0.790815 138 200 151
0.157825 0.551025 -8.43048 0.587724 -0.32147 0.742454 69 106 70
0.158756 0.551865 -8.42817 0.410874 -0.533678 0.739169 69 110 74
0.194585 0.551508 -8.49626 0.219612 -0.200201 0.954824 56 64 64
0.200869 0.54823 -8.49261 0.619857 0.205669 0.757283 24 21 18
0.208046 0.551253 -8.49918 0.1915 -0.136276 0.971986 30 34 34
0.21369 0.548532 -8.5036 0.231946 -0.494824 0.837466 29 26 21
0.21328 0.551504 -8.49938 0.145351 -0.393409 0.907801 32 35 32
0.220429 0.548629 -8.50518 0.228465 -0.494998 0.83832 26 22 17
0.218452 0.551703 -8.4997 0.133875 -0.325834 0.9359 25 28 23
0.227902 0.552691 -8.5018 0.0635682 -0.376895 0.924072 28 31 29
0.241534 0.549165 -8.50401 0.20488 -0.631133 0.748128 30 22 20
0.246864 0.551694 -8.50756 0.283481 -0.526229 0.801699 23 22 18
0.252939 0.549711 -8.51085 0.31041 -0.537108 0.784322 35 30 25
0.327736 0.546956 -8.46381 0.448481 -0.337746 0.827522 78 67 63
0.33655 0.546908 -8.46751 0.182429 -0.459516 0.869232 91 78 71
0.343959 0.546876 -8.46956 0.0995625 -0.0597138 0.993238 88 76 69
0.370093 0.54574 -8.47143 0.126456 -0.43068 0.893602 62 55 48
0.376925 0.545285 -8.46779 0.285416 0.560513 0.777408 60 53 46
0.395341 0.545689 -8.47271 0.110652 0.0484524 0.992678 53 46 37
0.471777 0.542439 -8.4842 0.0642584 0.555121 0.829284 24 25 13
0.487243 0.538676 -8.48153 0.0556072 0.464414 0.883871 34 39 40
0.49761 0.542051 -8.48796 -0.0184493 0.660547 0.750558 26 27 18
-0.447924 0.570386 -8.35534 0.176463 -0.423643 0.888475 62 64 70
-0.412086 0.565895 -8.37314 0.33207 0.437682 0.835562 29 38 43
-0.405992 0.568085 -8.4516 0.633209 0.50115 0.589826 29 28 31
-0.3997 0.567485 -8.45548 0.567225 0.510448 0.646297 33 34 35
-0.319904 0.562821 -8.39719 0.529444 -0.241879 0.813132 14 15 12
-0.26398 0.559846 -8.40661 0.300457 -0.121982 0.945963 12 12 10
-0.258234 0.56021 -8.40778 0.287299 -0.136533 0.94806 11 11 9
-0.25234 0.560703 -8.40853 0.488998 -0.197795 0.849563 8 8 7
-0.243046 0.561984 -8.40639 0.302357 -0.263817 0.915959 8 8 11
-0.235911 0.560246 -8.41307 0.353267 -0.151729 0.923136 8 8 7
-0.159513 0.563361 -8.10025 -0.502016 0.563099 0.656429 154 209 166
-0.159488 0.563275 -8.10023 -0.49786 0.554703 0.666663 154 209 166
-0.157187 0.56368 -8.09692 -0.462469 0.569866 0.679246 156 211 168
-0.151006 0.563129 -8.09803 -0.25617 0.167516 0.952006 146 206 157
-0.144825 0.561488 -8.07766 -0.50509 0.443748 0.740251 128 193 139
-0.145258 0.564543 -8.08015 -0.486363 0.424568 0.763671 129 195 141
-0.141399 0.561547 -8.07545 -0.534777 0.433786 0.72515 124 192 136
-0.141662 0.564381 -8.07819 -0.520557 0.438124 0.732849 127 195 139
-0.138503 0.564118 -8.07622 -0.513398 0.461234 0.723661 125 195 137
-0.120586 0.561307 -8.06295 -0.491446 0.663611 0.564005 110 178 123
-0.117314 0.561323 -8.06047 -0.483954 0.368763 0.793601 109 176 122
-0.114298 0.561672 -8.05795 -0.145424 0.082751 0.985903 125 189 137
-0.110218 0.562576 -8.05531 -0.417992 0.287451 0.861774 120 188 133
-0.106301 0.562487 -8.0536 -0.572086 0.123096 0.810904 124 193 137
-0.103503 0.560686 -8.0491 -0.681838 -0.108321 0.723439 139 204 152
-0.102885 0.563652 -8.05215 -0.385379 0.302563 0.871745 144 209 157
-0.0972315 0.560457 -8.04788 -0.3558 0.337892 0.871341 137 208 152
-0.0560555 0.560762 -8.03179 -0.523513 -0.386697 0.75921 114 187 127
-0.0525797 0.559431 -8.03047 -0.307832 0.24244 0.920034 115 180 127
-0.0451527 0.559016 -8.03018 -0.109742 -0.0986372 0.989054 110 180 125
-0.0392199 0.560192 -8.03484 -0.412039 0.33723 0.846464 109 182 124
-0.037016 0.55857 -8.03218 -0.11963 0.316053 0.941169 111 181 125
-0.0337636 0.561309 -8.03753 0.087101 0.627998 0.773326 116 187 128
-0.030318 0.559047 -8.0334 0.37215 0.50639 0.777865 110 187 126
-0.0333338 0.55861 -8.03161 -0.0612861 0.747928 0.660944 112 184 127
-0.0238398 0.55927 -8.03279 0.147719 0.34618 0.926466 116 194 133
-0.0216377 0.560576 -8.03488 0.33136 0.445309 0.831806 110 188 125
-0.0174244 0.560061 -8.03608 0.162172 0.111304 0.980465 109 188 123
-0.0108292 0.558121 -8.03584 0.116952 0.207934 0.971126 102 180 116
-0.00732223 0.558081 -8.038 -0.127434 0.45532 0.881161 122 192 137
-0.00241177 0.560279 -8.04129 0.0417852 0.630136 0.77536 112 191 126
0.00251152 0.559655 -8.04199 0.131956 0.451684 0.882366 116 192 131
0.00649606 0.559629 -8.04343 0.237773 0.49989 0.832811 117 191 131
0.0134155 0.558419 -8.04498 0.61178 0.257527 0.747934 114 184 127
0.0157594 0.558534 -8.04673 0.324589 0.251549 0.911792 110 181 124
0.0155109 0.558558 -8.04671 0.335788 0.261071 0.905035 111 182 124
0.0193096 0.558533 -8.04806 0.338364 0.248215 0.907689 109 180 122
0.0255815 0.556215 -8.05026 0.417387 0.341197 0.842242 106 178 119
0.0230173 0.558628 -8.04963 0.332613 0.192717 0.923162 114 187 128
0.0271976 0.559248 -8.05162 0.334303 0.469621 0.817128 118 191 131
0.0325775 0.557327 -8.05188 0.104835 0.4255 0.898866 121 190 135
0.0310079 0.559292 -8.05239 0.378531 0.630733 0.677414 120 190 132
0.0365249 0.557321 -8.05227 0.151638 0.368781 0.917064 126 194 139
0.0396932 0.557202 -8.05448 0.448799 0.403465 0.797368 128 195 140
0.0424172 0.557241 -8.05597 0.545549 0.398705 0.737164 129 195 141
0.0475992 0.555137 -8.05616 0.404565 0.672518 0.619716 128 190 138
0.0476348 0.557856 -8.05779 0.413952 0.531279 0.73918 135 199 146
0.0534594 0.55488 -8.06172 0.729748 -0.0391383 0.682596 127 190 136
0.057869 0.555396 -8.06537 0.684344 0.34798 0.640767 133 194 144
0.0615216 0.556807 -8.07206 0.40015 0.0499124 0.91509 134 196 147
0.160171 0.548519 -8.43314 0.614527 -0.346543 0.708706 66 107 69
0.197488 0.546769 -8.49229 0.579844 0.31665 0.750675 24 22 18
0.204583 0.547829 -8.49299 0.585155 0.265317 0.76629 25 22 18
0.225918 0.545737 -8.46474 -0.68346 0.571519 0.454146 68 55 52
0.233571 0.545981 -8.46705 -0.719007 0.503617 0.478957 53 41 38
0.252424 0.544612 -8.45086 0.0680675 -0.232863 0.970125 56 47 42
0.259149 0.544583 -8.45251 0.0700471 -0.313569 0.946978 52 44 37
0.340184 0.540753 -8.46877 0.0948109 -0.186985 0.977777 33 30 24
0.347157 0.540764 -8.46911 0.129581 -0.0988112 0.986633 32 28 23
0.366067 0.539575 -8.47161 0.066355 -0.222417 0.972691 21 19 15
0.372948 0.539623 -8.47058 0.422709 -0.327669 0.844956 20 19 14
0.441939 0.536631 -8.4843 0.0241854 0.764917 0.643675 18 27 30
0.448269 0.534033 -8.47883 0.073698 0.64817 0.757921 24 33 33
0.452726 0.539216 -8.48952 0.0203194 0.769749 0.638023 23 24 19
0.457598 0.533983 -8.48073 -0.00591043 0.806153 0.591678 27 36 32
0.457093 0.534687 -8.4796 0.079035 0.573149 0.815631 25 34 31
0.465284 0.538159 -8.48257 0.00598264 0.704087 0.710089 20 23 13
0.4667 0.537816 -8.48351 0.0659547 0.543091 0.83708 19 23 13
0.470199 0.534847 -8.47828 0.0743918 0.51302 0.855147 56 63 72
0.478482 0.538535 -8.48129 0.0710854 0.502354 0.861735 30 32 32
0.515912 0.5358 -8.4866 0.0831526 0.672816 0.735122 144 155 175
0.510597 0.537438 -8.48469 0.0151804 0.743265 0.668825 117 130 140
-0.446233 0.565102 -8.35941 0.412731 -0.285002 0.865117 21 21 20
-0.437501 0.561217 -8.36019 0.226507 -0.369167 0.901338 28 30 27
-0.439539 0.563559 -8.36412 0.462565 -0.108281 0.879948 22 23 19
-0.431528 0.561265 -8.36233 0.150663 -0.368255 0.917436 24 25 23
-0.395163 0.56348 -8.36833 0.497492 -0.345032 0.795898 27 28 24
-0.383601 0.561543 -8.37619 0.242708 -0.110674 0.963766 14 15 11
-0.382093 0.559921 -8.37336 0.23771 -0.322944 0.91608 17 25 28
-0.375374 0.559066 -8.37697 0.24033 -0.372319 0.896449 17 23 25
-0.376997 0.562112 -8.37915 0.0776033 -0.455887 0.886648 12 17 22
-0.370112 0.558785 -8.37464 0.14932 -0.535858 0.830999 16 22 29
-0.356862 0.560168 -8.38749 0.28023 0.245568 0.927991 17 16 16
-0.345872 0.560179 -8.38989 0.431894 0.313547 0.845669 16 20 23
-0.341036 0.560607 -8.39051 0.28512 0.312741 0.906035 14 19 25
-0.33106 0.557205 -8.39308 0.251904 0.578035 0.776157 14 16 17
-0.335778 0.560452 -8.3928 0.332569 0.320566 0.886925 14 17 22
-0.326096 0.55748 -8.3943 0.299071 0.461724 0.835086 14 13 11
-0.316665 0.559495 -8.39415 0.387968 -0.0110128 0.921607 14 14 12
-0.320788 0.557332 -8.39678 0.331557 0.492616 0.804611 13 13 10
-0.311519 0.560363 -8.39443 0.333452 -0.130063 0.933752 16 15 14
-0.305874 0.560238 -8.39668 0.332014 0.179379 0.926062 15 15 12
-0.292823 0.559035 -8.39566 0.0199177 -0.189026 0.98177 15 13 10
-0.292262 0.559979 -8.39822 0.253305 0.28442 0.924631 14 13 11
-0.289277 0.555433 -8.39744 0.360219 -0.176609 0.915997 16 18 18
-0.286067 0.558361 -8.39689 0.0329879 -0.232182 0.972113 15 14 12
-0.286858 0.55999 -8.39968 0.245522 0.211906 0.945946 15 14 12
-0.281392 0.560146 -8.40087 0.257493 0.164193 0.952228 15 14 11
-0.278983 0.557494 -8.39854 0.179911 -0.337326 0.924036 12 11 9
-0.274536 0.558586 -8.40559 0.288621 0.0968052 0.952537 15 15 12
-0.272958 0.555369 -8.4021 0.0475292 -0.508568 0.859709 17 19 15
-0.266893 0.554568 -8.40578 0.330715 -0.169988 0.928295 14 15 12
-0.262106 0.556203 -8.40464 0.1506 -0.458869 0.875648 12 11 8
-0.256965 0.556701 -8.40544 0.174761 -0.443349 0.879147 10 9 9
-0.248143 0.556607 -8.40713 0.161838 -0.447296 0.879622 10 10 7
-0.241238 0.556199 -8.40973 0.219775 -0.392299 0.893197 10 10 9
-0.23458 0.556386 -8.41126 0.209906 -0.258658 0.942887 10 10 8
-0.230705 0.554652 -8.41197 0.25446 0.153176 0.954876 16 18 17
-0.159904 0.558245 -8.10176 -0.00340641 0.311113 0.950367 164 214 174
-0.16059 0.558714 -8.10083 -0.128489 0.453749 0.881818 158 210 169
-0.156816 0.559156 -8.09983 -0.176932 0.229244 0.957153 154 208 165
-0.157057 0.559297 -8.09934 -0.167654 0.282334 0.944553 154 207 165
-0.15384 0.560128 -8.09745 -0.186684 0.28187 0.941116 143 202 155
-0.150603 0.560293 -8.08499 -0.645483 0.350972 0.678359 132 195 143
-0.147043 0.558017 -8.07784 -0.501631 0.439486 0.745129 129 192 139
-0.147435 0.561038 -8.08037 -0.559613 0.44194 0.701087 134 197 145
-0.143744 0.558179 -8.07551 -0.488032 0.349499 0.799797 119 186 130
-0.137412 0.560905 -8.0738 -0.474213 0.55933 0.679906 122 192 135
-0.126282 0.558706 -8.05715 -0.64434 0.204436 0.736907 129 188 142
-0.11233 0.558643 -8.05666 -0.273958 0.145087 0.950735 145 203 159
-0.108734 0.558906 -8.05346 -0.578842 0.272208 0.768664 138 201 153
-0.0583271 0.556202 -8.03121 -0.586883 -0.501291 0.635827 106 182 118
-0.0545568 0.556077 -8.03067 -0.209084 0.319522 0.924224 116 178 127
-0.0469877 0.555803 -8.03065 -0.14238 0.027757 0.989423 107 172 120
-0.043177 0.555811 -8.03021 -0.0390842 -0.163706 0.985735 96 171 111
-0.0392711 0.555917 -8.0304 -0.437121 0.543149 0.716879 113 175 126
-0.0353435 0.555577 -8.03074 -0.0675782 0.803598 0.591324 114 177 126
-0.0273043 0.556263 -8.02895 0.648051 -0.185324 0.738705 109 174 124
-0.0233718 0.555132 -8.03206 0.342259 0.326595 0.881019 112 181 127
-0.0202259 0.555066 -8.03428 0.372732 0.529431 0.762085 108 183 122
-0.016465 0.554987 -8.03396 0.223125 0.649652 0.726751 107 183 122
-0.0129111 0.554874 -8.03504 0.107653 0.223032 0.968849 103 179 117
-0.0102834 0.554491 -8.03598 0.102812 0.233857 0.96682 103 178 117
-0.00563154 0.555067 -8.03637 -0.43675 0.443463 0.782681 114 185 130
0.00156519 0.55414 -8.03748 0.722986 -0.108586 0.682276 116 187 132
0.000294225 0.556563 -8.04112 0.183103 0.478744 0.858649 113 187 129
0.00520873 0.556599 -8.04082 0.35962 0.388062 0.848576 116 187 132
0.00871319 0.556538 -8.04272 0.320691 0.399919 0.858617 121 189 136
0.00732922 0.55346 -8.04072 0.449156 0.25394 0.856606 116 184 131
0.0117351 0.555874 -8.04345 0.517937 0.248017 0.818675 117 184 131
0.0177534 0.555339 -8.04676 0.398781 0.280722 0.873023 111 181 126
0.0148181 0.555182 -8.0449 0.554065 0.236354 0.798216 110 178 124
0.0211886 0.555388 -8.04893 0.29263 0.037657 0.955484 105 176 118
0.0280073 0.55326 -8.04952 -0.0870982 0.431274 0.898007 109 177 122
0.0343477 0.554061 -8.05159 0.210001 0.307845 0.927972 116 183 129
0.0342044 0.554003 -8.05118 0.257046 0.316771 0.913008 115 182 128
0.0377659 0.553976 -8.05327 0.4967 0.246972 0.832042 122 188 133
0.0411621 0.554219 -8.05581 0.455301 0.252502 0.853782 122 188 134
0.0443486 0.554252 -8.0563 0.336828 0.584757 0.737974 126 190 137
0.046645 0.552186 -8.05615 0.371996 0.652675 0.660026 123 184 133
0.0561009 0.553151 -8.06339 0.588649 0.154597 0.793469 138 195 149
0.0595784 0.552236 -8.06344 0.31144 -0.0415684 0.949356 138 194 148
0.195078 0.541381 -8.45627 0.164792 0.779936 0.603775 44 38 31
0.199525 0.539195 -8.4546 0.0540021 0.741796 0.668447 26 25 19
0.199484 0.542397 -8.45856 -0.138571 0.562197 0.815311 54 45 39
0.203537 0.537613 -8.45742 -0.0282344 0.197216 0.979953 24 23 18
0.222362 0.539433 -8.4583 -0.235373 0.0823127 0.968413 34 30 26
0.227907 0.540748 -8.45658 -0.0939944 0.276247 0.956479 38 34 30
0.234054 0.540771 -8.45555 -0.462076 0.430918 0.77511 32 29 25
0.239906 0.540787 -8.45151 -0.416494 0.451361 0.789181 29 25 22
0.241911 0.535429 -8.44886 -0.351001 0.419439 0.837179 13 12 10
0.245885 0.540804 -8.44773 -0.301096 0.503253 0.809986 33 29 25
0.246943 0.535656 -8.43994 -0.472776 0.381054 0.794532 13 13 10
0.257684 0.539025 -8.45962 0.0553739 -0.663025 0.746546 30 26 21
0.289774 0.537246 -8.44455 0.494787 0.547083 0.675194 16 19 22
0.336954 0.533992 -8.46512 0.501529 0.40308 0.765503 12 11 10
0.341538 0.534158 -8.4638 0.453382 0.569587 0.685577 11 11 10
0.360795 0.532839 -8.47299 0.0994475 0.696008 0.711114 11 10 10
0.433401 0.5316 -8.48342 -0.0457659 0.846794 0.529949 21 28 30
0.434626 0.532912 -8.48129 0.0150908 0.753365 0.65743 20 27 31
0.43968 0.53087 -8.47453 0.0865757 0.560484 0.823628 53 68 76
0.462822 0.530943 -8.47588 0.0554087 0.617886 0.784313 118 130 147
0.470584 0.527609 -8.47362 0.00443906 0.778978 0.627036 116 126 140
0.478777 0.530357 -8.4768 0.0744024 0.437925 0.895927 145 157 177
0.483014 0.531549 -8.47764 0.12883 0.30522 0.943527 147 159 179
0.491044 0.527984 -8.47516 -0.0100175 0.829347 0.558645 58 66 75
0.492013 0.531617 -8.47806 0.0801337 0.46733 0.880444 137 148 169
0.501915 0.531743 -8.48037 -0.0260521 0.820055 0.571691 127 138 158
0.512676 0.527841 -8.47477 0.0243499 0.814241 0.580017 13 17 15
-0.441151 0.556481 -8.35921 0.243499 -0.222115 0.944126 109 120 133
-0.44374 0.560918 -8.35934 0.231845 -0.336468 0.912709 30 32 28
-0.435333 0.557131 -8.36005 0.337978 -0.272184 0.900937 91 101 110
-0.414144 0.556824 -8.3672 0.0986866 0.239776 0.965799 65 80 93
-0.400463 0.557535 -8.36914 0.307473 -0.126502 0.943111 58 69 79
-0.395131 0.557366 -8.37156 0.304643 -0.114425 0.945568 46 56 61
-0.38701 0.557879 -8.37213 0.298288 -0.460038 0.836295 41 51 59
-0.380217 0.556387 -8.37244 0.195011 -0.457895 0.867354 71 83 98
-0.366064 0.557848 -8.37717 0.0346627 -0.264011 0.963897 18 24 31
-0.359729 0.556453 -8.3823 0.337211 -0.0663029 0.939091 25 30 31
-0.354005 0.556012 -8.38551 0.360649 0.268238 0.893298 23 26 26
-0.348664 0.556332 -8.3868 0.324832 0.316836 0.891122 21 24 24
-0.343313 0.556543 -8.38764 0.225487 0.261661 0.938451 19 23 26
-0.344373 0.552843 -8.38629 0.305025 0.0919488 0.947895 87 97 107
-0.33892 0.552809 -8.38836 0.340766 0.153688 0.927501 75 85 92
-0.337965 0.556168 -8.38985 0.18507 0.298107 0.936419 17 21 25
-0.335357 0.555451 -8.39125 0.331475 0.708661 0.622836 20 24 28
-0.333665 0.55342 -8.38911 0.351153 0.0774662 0.933108 62 72 80
-0.331033 0.552876 -8.39 0.366005 0.250686 0.896212 71 82 90
-0.328011 0.553435 -8.39101 0.322597 0.0759661 0.943483 53 61 65
-0.322271 0.552745 -8.39424 0.301008 0.429578 0.851385 49 56 60
-0.31506 0.556004 -8.39247 0.169565 -0.466524 0.868103 13 16 16
-0.319545 0.554498 -8.39266 0.252585 -5.91725e-005 0.967575 30 34 35
-0.313612 0.553831 -8.39648 0.315432 0.273067 0.908811 26 30 30
-0.307625 0.554028 -8.39713 0.266493 0.146655 0.952614 25 29 29
-0.296851 0.554598 -8.39525 0.23555 -0.304858 0.92281 39 41 44
-0.282028 0.551829 -8.40015 0.230742 -0.296689 0.926679 79 88 94
-0.27392 0.5504 -8.40299 0.223939 -0.449124 0.86495 110 123 132
-0.271105 0.549645 -8.40486 0.250016 -0.220082 0.942898 121 133 142
-0.2644 0.549371 -8.40718 0.259051 -0.188465 0.947298 111 123 132
-0.258108 0.549646 -8.40841 0.234281 -0.275619 0.93228 101 111 120
-0.251584 0.550077 -8.40928 0.2289 -0.298669 0.9265 97 109 115
-0.244479 0.549914 -8.41133 0.268882 -0.252219 0.929563 91 102 107
-0.23786 0.549865 -8.41333 0.21731 -0.268835 0.938352 84 93 97
-0.231377 0.55034 -8.41397 0.158149 -0.0899438 0.98331 77 84 89
-0.168143 0.555915 -8.10281 -0.733021 0.288428 0.616027 152 203 163
-0.160227 0.554087 -8.09553 -0.0813075 0.754534 0.651204 151 202 162
-0.156799 0.55401 -8.09305 -0.093649 0.71036 0.697581 148 202 159
-0.154859 0.554259 -8.08939 -0.121559 0.608566 0.784137 144 198 155
-0.15464 0.554653 -8.08941 -0.293922 0.702637 0.648005 144 199 155
-0.158001 0.554682 -8.1005 -0.138748 0.285867 0.948171 143 198 154
-0.158121 0.554688 -8.09997 -0.10611 0.296478 0.949127 145 199 156
-0.15294 0.555183 -8.08583 -0.379267 0.59127 0.711728 139 196 151
-0.145419 0.554569 -8.07571 -0.661259 0.379182 0.64727 112 177 122
-0.146494 0.557476 -8.07817 -0.655118 0.41251 0.632974 120 185 130
-0.142296 0.55483 -8.07326 -0.544546 0.342321 0.765693 113 179 124
-0.137038 0.55626 -8.06892 -0.583575 0.49952 0.64025 113 181 125
-0.12873 0.556217 -8.06431 -0.688199 -0.132332 0.713352 141 202 157
-0.131677 0.554108 -8.06184 -0.648573 0.289192 0.704074 121 182 132
-0.129004 0.554917 -8.0608 -0.648422 0.293172 0.702567 122 182 133
-0.12911 0.553897 -8.06059 -0.692482 0.0171955 0.72123 121 181 132
-0.126092 0.555734 -8.05894 -0.65113 0.255609 0.714629 120 181 132
-0.12343 0.556171 -8.05964 -0.519703 0.547437 0.655912 117 180 129
-0.11959 0.556677 -8.05713 -0.117163 0.485612 0.866287 126 189 140
-0.117812 0.553625 -8.05515 -0.297111 0.236285 0.925146 137 197 153
-0.115662 0.556394 -8.05722 -0.188637 0.260085 0.94698 141 198 157
-0.106925 0.554611 -8.05202 -0.615799 0.250987 0.746858 115 183 127
-0.10384 0.554971 -8.04788 -0.699071 -0.0392112 0.713977 140 205 155
-0.100562 0.554915 -8.04815 -0.233234 -0.528072 0.816543 134 203 148
-0.096369 0.556518 -8.04674 -0.0563998 -0.505824 0.860791 131 202 144
-0.0586873 0.552262 -8.02659 -0.129039 0.294319 0.946956 103 165 114
-0.0575621 0.55464 -8.02614 -0.395165 0.475384 0.786038 107 171 119
-0.0533412 0.553673 -8.02757 -0.45293 0.138252 0.880761 111 169 122
-0.04944 0.553543 -8.02836 -0.460794 0.0189837 0.887304 100 169 113
-0.0447755 0.551939 -8.03134 -0.189121 0.391249 0.900643 89 162 103
-0.0412365 0.551923 -8.03019 -0.324238 0.313492 0.89252 106 166 117
-0.0376374 0.552977 -8.0276 0.0607282 0.739063 0.670894 109 169 120
-0.0332614 0.551776 -8.02858 -0.266407 -0.194614 0.944009 103 166 115
-0.0295552 0.552166 -8.03147 0.563777 -0.104885 0.81924 97 165 110
