ply
format ascii 1.0
element vertex 709
property float x
property float y
property float z
property float nx
property float ny
property float nz
property uchar diffuse_red
property uchar diffuse_green
property uchar diffuse_blue
end_header
-0.67172 -0.429998 -2.61816 0.269292 -0.302004 0.914481 113 162 174
-0.655642 -0.42997 -2.62268 0.253333 -0.315837 0.914368 39 122 149
-0.639696 -0.430544 -2.6276 0.239942 -0.319597 0.916671 103 171 181
-0.62397 -0.430261 -2.63467 0.433058 -0.281446 0.8563 168 129 134
-0.60918 -0.430335 -2.64274 0.434911 -0.335879 0.835487 199 98 121
-0.594048 -0.430056 -2.64904 0.414309 -0.323668 0.850639 201 81 113
-0.578548 -0.430001 -2.65562 0.278193 -0.316593 0.90685 143 65 70
-0.560799 -0.428509 -2.65694 0.115646 -0.344287 0.931715 40 28 24
-0.553367 -0.441784 -2.66298 0.108085 -0.324997 0.939518 28 23 19
-0.535761 -0.440842 -2.65833 -0.0086027 -0.419354 0.907782 27 30 24
-0.521249 -0.442823 -2.65121 -0.183563 -0.418287 0.889574 30 33 28
-0.503686 -0.446886 -2.63044 0.0483317 -0.460247 0.886474 37 41 35
-0.487144 -0.446784 -2.63181 -0.288617 -0.39496 0.872185 66 66 61
-0.46508 -0.44948 -2.63926 0.357479 -0.259519 0.897139 38 36 33
-0.44253 -0.451176 -2.64207 0.588325 -0.161541 0.792325 50 44 46
-0.420958 -0.44136 -2.65975 0.408502 -0.345489 0.844845 53 55 51
-0.429636 -0.453782 -2.65823 0.461667 -0.411285 0.785944 51 46 46
-0.415935 -0.454132 -2.66742 0.390306 -0.451494 0.80238 53 49 48
-0.40058 -0.453772 -2.67164 0.334351 -0.449424 0.828389 55 53 52
-0.386796 -0.444505 -2.67061 0.529159 -0.520804 0.669891 59 62 56
-0.349813 -0.454156 -2.69326 0.383497 -0.594848 0.70646 14 13 12
-0.363557 -0.453821 -2.6881 0.342777 -0.479626 0.807752 21 18 16
-0.291819 -0.462538 -2.64916 -0.695551 -0.0790273 0.714117 28 22 16
-0.28887 -0.462493 -2.64757 -0.785006 0.0142244 0.619325 32 25 18
-0.291819 -0.462538 -2.64916 -0.695551 -0.0790273 0.714117 28 22 16
-0.28887 -0.462493 -2.64757 -0.785006 0.0142244 0.619325 32 25 18
-0.268617 -0.476873 -2.60001 -0.0128388 -0.359982 0.932871 47 33 18
-0.252509 -0.477941 -2.6031 0.258789 -0.265687 0.928676 95 50 27
-0.231152 -0.47934 -2.60857 0.247097 -0.249863 0.936222 121 68 34
-0.210528 -0.48159 -2.61519 0.237343 -0.264903 0.934609 139 85 50
-0.193585 -0.479887 -2.62253 -0.047337 -0.350568 0.93534 144 83 48
-0.179098 -0.476936 -2.62563 -0.0108852 -0.32617 0.945249 147 96 59
-0.155723 -0.491064 -2.63189 0.252131 -0.297212 0.920921 202 186 180
-0.162686 -0.477496 -2.62705 0.121612 -0.285222 0.950715 201 190 187
-0.14722 -0.478494 -2.62999 0.232788 -0.298019 0.92574 169 164 159
-0.124528 -0.489403 -2.63896 0.249335 -0.314885 0.915794 170 169 168
-0.133167 -0.481386 -2.63543 0.2739 -0.316597 0.908155 71 67 68
-0.110599 -0.48899 -2.64437 0.286794 -0.323267 0.901803 107 106 104
-0.096493 -0.489023 -2.64896 0.298661 -0.354475 0.886086 164 164 162
-0.0807843 -0.48789 -2.65328 0.274836 -0.346365 0.896937 173 173 172
-0.0663207 -0.487937 -2.65791 0.274457 -0.288282 0.917369 185 186 184
-0.0506936 -0.488592 -2.66066 0.268742 -0.274182 0.923364 145 146 144
-0.0365772 -0.486172 -2.66537 0.277615 -0.294062 0.914581 186 187 185
-0.0209958 -0.486263 -2.66912 0.249901 -0.345651 0.904475 127 128 127
-0.00161403 -0.487658 -2.67798 0.305516 -0.235332 0.922648 103 103 102
-0.00249052 -0.487697 -2.67656 0.336035 -0.267674 0.903012 103 104 103
0.0130777 -0.488138 -2.68211 0.323136 -0.284264 0.90265 169 167 167
0.0278053 -0.488234 -2.68722 0.281219 -0.273085 0.919968 137 135 135
0.0423881 -0.488243 -2.69236 0.31496 -0.290385 0.903591 58 55 56
0.0568158 -0.488452 -2.69696 0.345804 -0.240249 0.907028 85 80 82
0.0717392 -0.488484 -2.70249 0.35769 -0.210927 0.909707 73 70 71
0.086923 -0.488539 -2.70821 0.352038 -0.27928 0.893349 56 34 31
0.101349 -0.488902 -2.71217 0.386 -0.0913561 0.917964 195 42 44
0.396873 -0.459178 -3.04545 -0.13544 0.40186 0.905629 39 67 27
0.414652 -0.456808 -3.01645 -0.614699 0.252894 0.747121 69 118 53
0.434666 -0.456963 -3.00787 -0.326279 0.274507 0.904537 93 155 79
0.436383 -0.456933 -3.00855 -0.224142 0.32394 0.919143 94 157 80
0.444727 -0.474457 -3.00166 -0.384829 -0.0866966 0.918907 90 153 75
0.451896 -0.459339 -2.997 0.0757621 0.376648 0.923253 99 169 86
0.465318 -0.472502 -3.00479 -0.0907305 0.392906 0.915092 98 167 82
0.486194 -0.472001 -3.0055 0.120623 0.713694 0.689993 94 164 80
0.880104 -0.469852 -3.20718 -0.0480232 -0.400865 0.914877 25 26 23
0.900147 -0.467941 -3.19344 0.0402916 -0.23081 0.972164 36 38 32
0.924861 -0.467239 -3.19596 0.101903 -0.262699 0.959482 111 114 111
0.95014 -0.465969 -3.20375 0.36649 -0.137058 0.920272 192 198 197
0.978779 -0.466844 -3.22128 0.523812 -0.193659 0.829528 183 185 183
1.01226 -0.469226 -3.23784 0.385634 -0.245437 0.889408 125 119 121
1.02994 -0.470688 -3.22221 -0.433098 -0.247015 0.866839 103 94 97
-0.893572 -0.392076 -2.79454 0.608308 -0.207937 0.765979 13 11 9
-0.881265 -0.393468 -2.81249 0.291348 -0.260851 0.920366 16 14 11
-0.863913 -0.393109 -2.81472 -0.307466 -0.35826 0.881541 26 20 17
-0.712519 -0.443797 -2.60312 0.806932 0.00170596 0.590642 25 19 16
-0.709483 -0.441931 -2.59719 0.814697 -0.0366192 0.57873 25 19 16
-0.698511 -0.444721 -2.61415 0.279071 -0.280315 0.918446 28 19 19
-0.696884 -0.443653 -2.61387 0.285439 -0.320886 0.903082 29 19 19
-0.68139 -0.444101 -2.61933 0.358157 -0.306882 0.881786 78 71 81
-0.665815 -0.444398 -2.62556 0.30136 -0.31927 0.89847 101 161 170
-0.649528 -0.444292 -2.63023 0.281907 -0.33019 0.900835 52 140 162
-0.633487 -0.444278 -2.63536 0.315186 -0.347535 0.883106 109 167 174
-0.618446 -0.444213 -2.64246 0.409392 -0.327106 0.851704 176 122 133
-0.603284 -0.443744 -2.6493 0.391908 -0.323216 0.861359 198 87 118
-0.587909 -0.44395 -2.65676 0.342448 -0.301381 0.889887 192 82 110
-0.571528 -0.443945 -2.66175 0.290732 -0.288361 0.912317 103 45 46
-0.546244 -0.455354 -2.67028 0.18979 -0.328622 0.925196 26 20 17
-0.528093 -0.454351 -2.66696 0.215849 -0.478652 0.851059 28 31 27
-0.495783 -0.459568 -2.63786 0.0119041 -0.412216 0.911008 42 45 40
-0.479296 -0.459961 -2.63763 0.0571433 -0.398639 0.915326 56 56 53
-0.470742 -0.473547 -2.64021 -0.062294 -0.308436 0.949203 37 35 33
-0.438197 -0.469876 -2.63983 0.816237 -0.427081 0.389049 64 60 63
-0.430729 -0.459673 -2.67652 -0.26478 -0.000671804 0.964309 58 54 56
-0.409238 -0.46387 -2.66269 0.521115 -0.497588 0.69343 61 60 60
-0.395671 -0.465808 -2.67946 0.337188 -0.425019 0.840037 53 49 51
-0.375561 -0.466418 -2.68873 0.421949 -0.371721 0.826911 33 27 27
-0.358962 -0.466136 -2.69554 0.405477 -0.39031 0.826587 20 16 14
-0.345186 -0.467955 -2.6935 0.356548 -0.499647 0.789447 15 13 10
-0.330543 -0.468449 -2.69678 0.283692 -0.503965 0.815805 15 16 14
-0.325866 -0.462005 -2.69308 -0.168491 0.131578 0.976882 15 17 14
-0.290968 -0.482321 -2.68057 -0.560923 -0.185122 0.806905 26 22 17
-0.28107 -0.485282 -2.61453 -0.511919 -0.374531 0.773088 32 25 15
-0.260406 -0.491369 -2.60485 0.223201 -0.360397 0.905702 61 34 16
-0.244158 -0.493155 -2.61149 0.0723211 -0.450048 0.890071 122 63 33
-0.225049 -0.49094 -2.61472 0.111519 -0.172725 0.978637 135 81 45
-0.211996 -0.502539 -2.62707 -0.0788916 -0.43229 0.898277 150 90 51
-0.201053 -0.493388 -2.62224 0.318777 -0.226117 0.920463 162 103 66
-0.186748 -0.491328 -2.62948 0.106675 -0.283277 0.953087 143 84 45
-0.179221 -0.505308 -2.63212 0.151025 -0.24666 0.957262 145 90 55
-0.164441 -0.503143 -2.63463 0.179063 -0.33608 0.924655 185 158 127
-0.170578 -0.491421 -2.63084 0.105335 -0.304886 0.946546 167 134 117
-0.149333 -0.503556 -2.63778 0.225347 -0.313507 0.92246 156 114 67
-0.132633 -0.501918 -2.6408 0.2324 -0.315445 0.920046 60 41 41
-0.118934 -0.500924 -2.64592 0.25099 -0.343384 0.905037 171 171 168
-0.0894622 -0.501253 -2.65463 0.266004 -0.210119 0.940793 162 162 161
-0.0893303 -0.501176 -2.65466 0.26474 -0.210445 0.941077 162 162 161
-0.104812 -0.500917 -2.65027 0.278295 -0.345921 0.896042 176 175 172
-0.0744008 -0.501184 -2.65889 0.260797 -0.208268 0.942661 49 49 48
-0.074645 -0.500476 -2.65937 0.262013 -0.230793 0.937061 52 52 51
-0.0596974 -0.501116 -2.66317 0.272255 -0.221786 0.936316 129 129 128
-0.0589806 -0.501119 -2.66214 0.268244 -0.27184 0.924201 135 135 134
-0.0451246 -0.500056 -2.66755 0.265096 -0.282018 0.922058 147 146 146
-0.0291484 -0.499701 -2.67119 0.256387 -0.155907 0.953918 60 59 59
-0.0122686 -0.501273 -2.67755 0.26164 -0.449345 0.854186 55 55 55
0.00454889 -0.500853 -2.68266 0.304706 -0.25436 0.917854 42 41 42
0.0039419 -0.500772 -2.68232 0.302152 -0.240781 0.922349 41 41 41
0.010602 -0.513088 -2.68372 0.26251 -0.0491361 0.963677 31 29 31
0.0188013 -0.50085 -2.68705 0.266588 -0.248669 0.931179 44 42 43
0.0194059 -0.500875 -2.68719 0.274864 -0.248654 0.928774 43 41 42
0.0176615 -0.502064 -2.68639 0.277955 -0.18704 0.942209 41 39 40
0.025472 -0.513521 -2.6878 0.267144 -0.040721 0.962796 31 30 31
0.0479383 -0.502206 -2.69564 0.308406 -0.207373 0.928376 31 29 31
0.0338737 -0.500706 -2.69143 0.321726 -0.219075 0.92114 36 33 34
0.0327882 -0.502138 -2.69095 0.302492 -0.206995 0.930404 34 32 33
0.0628273 -0.502274 -2.70099 0.347747 -0.158906 0.924024 33 29 31
0.0543452 -0.516157 -2.69887 0.327535 -0.0733864 0.941985 31 29 30
0.0783569 -0.502205 -2.70893 0.347294 -0.23566 0.907663 37 28 31
0.0705873 -0.515574 -2.71127 0.443934 -0.36214 0.81962 40 32 36
0.0933287 -0.502207 -2.71465 0.398584 -0.212512 0.892171 86 29 26
0.108458 -0.502078 -2.72061 0.391658 -0.255634 0.883887 233 45 46
0.410184 -0.477086 -3.0224 -0.718519 -0.475847 0.507249 40 73 26
0.426708 -0.488895 -3.00435 -0.802503 0.0837518 0.590741 62 107 47
0.473265 -0.492408 -2.98968 -0.91676 -0.231946 0.325196 100 164 82
0.473244 -0.492422 -2.9896 -0.916773 -0.232478 0.324778 100 164 82
0.473244 -0.492422 -2.9896 -0.916773 -0.232478 0.324778 100 164 82
0.509465 -0.484257 -3.00812 0.144277 0.70579 0.693574 60 104 44
0.508295 -0.500855 -2.98039 0.077869 0.731585 0.677289 67 106 48
0.532618 -0.496828 -3.00997 0.127959 0.713368 0.689008 45 55 23
0.583018 -0.531186 -2.86312 -0.771471 0.470316 0.428527 58 50 29
0.910359 -0.492251 -3.20648 0.160094 -0.465931 0.870217 55 48 41
0.936785 -0.491599 -3.20728 0.179078 -0.428906 0.885422 72 67 60
0.963871 -0.491667 -3.21852 0.409643 -0.307933 0.858702 154 156 155
0.992517 -0.492589 -3.22266 0.0877487 -0.489862 0.867373 171 172 174
0.993945 -0.49194 -3.22282 0.0916467 -0.488274 0.867865 167 168 170
1.01693 -0.491165 -3.22034 -0.31746 -0.138823 0.938055 97 92 96
1.03052 -0.51041 -3.22087 -0.218833 -0.604096 0.766277 84 78 81
-0.88827 -0.406947 -2.80649 0.493709 -0.172465 0.852354 12 10 8
-0.873141 -0.40742 -2.81542 0.161596 -0.201844 0.965995 18 14 11
-0.85342 -0.410686 -2.81017 -0.197283 -0.258522 0.945646 30 21 18
-0.706472 -0.459384 -2.60972 0.527891 -0.287004 0.799349 24 20 17
-0.690708 -0.458279 -2.61896 0.424337 -0.267742 0.865016 35 19 23
-0.691785 -0.458736 -2.62017 0.341509 -0.277853 0.897869 34 19 22
-0.675303 -0.458497 -2.62653 0.336801 -0.294743 0.894255 106 117 125
-0.675883 -0.458877 -2.62635 0.341286 -0.29398 0.892805 103 111 119
-0.659335 -0.458491 -2.6325 0.300037 -0.317026 0.899707 62 139 149
-0.642935 -0.458337 -2.63687 0.266246 -0.302245 0.915293 71 158 177
-0.632971 -0.469091 -2.64419 0.313965 -0.313331 0.896242 126 150 164
-0.612983 -0.457652 -2.64999 0.422456 -0.234605 0.875495 184 117 134
-0.616864 -0.469268 -2.65112 0.415736 -0.192804 0.888814 138 147 154
-0.616902 -0.469341 -2.65108 0.417235 -0.191306 0.888435 138 147 154
-0.597015 -0.457663 -2.65648 0.381566 -0.247659 0.890546 175 92 131
-0.589678 -0.472429 -2.66402 0.360931 -0.274221 0.891365 88 160 177
-0.581426 -0.457745 -2.66308 0.32528 -0.25924 0.909389 155 103 117
-0.564596 -0.458134 -2.66818 0.299237 -0.283552 0.911074 75 33 27
-0.574139 -0.472391 -2.67003 0.359206 -0.285199 0.888613 94 115 105
-0.557865 -0.472354 -2.67512 0.304409 -0.310925 0.900367 65 19 15
-0.54094 -0.471647 -2.67591 0.132882 -0.302585 0.943814 31 20 19
-0.524879 -0.470492 -2.67114 -0.0762808 -0.19298 0.978233 29 31 27
-0.500936 -0.475596 -2.63982 0.0639438 -0.457162 0.887082 36 39 34
-0.486594 -0.473634 -2.64223 -0.138911 -0.407069 0.902773 59 58 55
-0.46117 -0.489551 -2.64024 -0.295287 -0.335389 0.894606 37 33 31
-0.441289 -0.48157 -2.65329 0.740776 -0.497897 0.450943 62 58 59
-0.411169 -0.477804 -2.67848 0.418928 -0.113011 0.900959 51 48 49
-0.395669 -0.477616 -2.68499 0.360258 -0.1081 0.926568 55 53 52
-0.367833 -0.481079 -2.695 0.309698 -0.117143 0.943591 38 35 24
-0.33926 -0.48292 -2.69825 0.0849418 -0.236284 0.967964 22 21 16
-0.32243 -0.482815 -2.70025 -0.26396 -0.382684 0.885369 16 18 16
-0.297377 -0.4913 -2.70896 -0.730952 0.205594 0.650722 22 20 14
-0.286325 -0.503149 -2.62802 -0.50854 -0.361732 0.781368 26 20 13
-0.277911 -0.512202 -2.6248 -0.52193 -0.403296 0.751625 33 23 15
-0.265513 -0.506495 -2.6095 -0.162563 -0.42267 0.891585 48 29 13
-0.249901 -0.508789 -2.61285 0.0855929 -0.447047 0.890406 102 52 27
-0.224681 -0.51852 -2.62318 0.0271294 -0.214178 0.976418 124 69 34
-0.237907 -0.504003 -2.61975 0.078996 -0.44904 0.890013 127 68 35
-0.232997 -0.50466 -2.61894 -0.068487 -0.350367 0.934105 123 68 35
-0.195481 -0.505608 -2.6288 0.328455 -0.28401 0.900809 157 94 56
-0.188755 -0.514916 -2.6281 0.398058 -0.263935 0.878572 148 87 48
-0.157702 -0.516076 -2.64018 0.209067 -0.331493 0.920002 200 173 67
-0.173322 -0.516705 -2.63932 0.0493191 -0.276361 0.959788 148 99 51
-0.143316 -0.515345 -2.64436 0.207306 -0.312708 0.926951 153 117 48
-0.128585 -0.515298 -2.64784 0.235874 -0.301012 0.923989 34 29 26
-0.113098 -0.512744 -2.65121 0.293758 -0.277696 0.914654 75 74 73
-0.114141 -0.515195 -2.65175 0.28696 -0.282357 0.915384 55 54 53
-0.0978988 -0.514374 -2.6555 0.238835 -0.205477 0.949072 63 61 61
-0.0824516 -0.514397 -2.65942 0.243891 -0.177942 0.953338 29 27 27
-0.0679935 -0.513967 -2.6642 0.271076 -0.237124 0.932893 24 23 22
-0.0620193 -0.527473 -2.66656 0.258472 -0.200167 0.945053 23 21 21
-0.0534887 -0.514175 -2.66792 0.302525 -0.245498 0.920983 30 29 29
-0.0458374 -0.528541 -2.67059 0.309891 -0.175198 0.934491 27 26 26
-0.0375109 -0.514482 -2.6699 0.214971 -0.112966 0.970065 33 32 32
-0.00700886 -0.516228 -2.67925 0.302825 -0.126326 0.944637 28 28 29
-0.00639526 -0.513779 -2.68323 0.297126 -0.302621 0.905614 28 28 29
-0.0211747 -0.51458 -2.67436 0.269417 -0.0863742 0.959142 29 29 30
-0.0154706 -0.527322 -2.67864 0.303998 -0.200844 0.931261 29 28 29
0.00893575 -0.516165 -2.68416 0.274342 -0.122515 0.953796 29 28 30
0.00125554 -0.529235 -2.6898 0.780915 0.0722749 0.620442 22 21 20
0.0239317 -0.516221 -2.68824 0.267077 -0.0312612 0.963168 31 29 31
0.0391964 -0.516105 -2.6941 0.285677 -0.107754 0.952249 29 28 30
0.0319235 -0.528866 -2.70254 0.709739 0.118568 0.694415 25 24 24
0.0540688 -0.516733 -2.69924 0.321579 -0.0847385 0.943083 30 29 30
0.0642722 -0.528623 -2.71706 0.469847 -0.266823 0.841457 35 32 33
0.0755416 -0.527476 -2.7152 0.264154 -0.345782 0.900365 33 31 32
0.0996337 -0.516778 -2.72409 0.473732 -0.270597 0.838066 154 36 36
0.0973975 -0.528943 -2.72641 0.288787 -0.263795 0.920334 113 31 26
0.112173 -0.528774 -2.73006 0.447827 -0.315458 0.836623 239 50 50
0.387632 -0.484002 -3.08548 -0.146533 -0.057334 0.987543 21 24 17
0.413911 -0.490244 -3.04521 -0.906519 0.0818617 0.414153 32 52 20
0.405456 -0.482597 -3.06294 -0.769107 0.21343 0.60243 27 40 19
0.425039 -0.508338 -3.01301 -0.808501 0.0791615 0.583147 39 65 26
0.438255 -0.503026 -2.9853 -0.807462 0.0728092 0.585409 70 117 53
0.453735 -0.513973 -2.97506 -0.881865 -0.0838199 0.463992 82 134 63
0.486027 -0.507933 -2.96773 0.0486182 0.741904 0.668741 94 153 74
0.507666 -0.517398 -2.95663 0.0921473 0.729266 0.677997 83 127 59
0.515746 -0.524966 -2.94869 0.110707 0.723487 0.681404 86 129 61
0.531013 -0.51159 -2.97751 0.152681 0.704725 0.692857 50 63 26
0.548117 -0.521246 -2.92905 -0.602657 0.556273 0.572159 49 39 16
0.549818 -0.536893 -2.9043 -0.720958 0.516195 0.462345 66 38 14
0.845446 -0.488366 -3.32599 -0.656338 -0.412169 0.631931 55 54 41
0.861827 -0.49532 -3.31151 -0.740843 -0.344619 0.576532 41 41 28
0.876971 -0.495123 -3.25674 -0.179727 -0.545267 0.818769 28 24 21
0.921218 -0.513746 -3.21588 0.112173 -0.616393 0.779408 73 61 51
0.949327 -0.514071 -3.22374 0.20033 -0.594448 0.778781 58 48 40
1.00467 -0.512338 -3.21973 -0.433822 -0.341059 0.833952 115 110 114
-0.880586 -0.421854 -2.81126 0.0521704 0.0637417 0.996602 13 12 9
-0.881995 -0.423241 -2.81512 -0.167493 0.0307785 0.985393 13 11 9
-0.863087 -0.421907 -2.81461 -0.323101 -0.295789 0.898952 23 17 14
-0.716359 -0.47086 -2.62378 -0.197084 0.632799 0.748814 19 19 16
-0.701284 -0.473089 -2.62325 0.242531 -0.367118 0.898 26 20 17
-0.700319 -0.472156 -2.62028 0.255521 -0.349268 0.90151 26 20 17
-0.700588 -0.4721 -2.61944 0.283408 -0.337652 0.897592 26 20 17
-0.685591 -0.47274 -2.62875 0.290473 -0.343156 0.893236 44 27 30
-0.684695 -0.472255 -2.62705 0.342416 -0.324774 0.881631 46 28 32
-0.661979 -0.486162 -2.63956 0.262313 -0.317693 0.911188 175 97 119
-0.645744 -0.486174 -2.64431 0.289296 -0.309503 0.905823 172 65 97
-0.652776 -0.472396 -2.63821 0.288741 -0.291255 0.91203 82 103 123
-0.626169 -0.483848 -2.65019 0.40286 -0.163296 0.900577 169 130 141
-0.598927 -0.486516 -2.66415 0.389773 -0.267694 0.881146 63 157 182
-0.610427 -0.483651 -2.65754 0.378417 -0.185689 0.906819 91 162 170
-0.583392 -0.486229 -2.6706 0.365587 -0.291341 0.884006 93 166 175
-0.567965 -0.486264 -2.67707 0.414513 -0.285389 0.864137 83 76 69
-0.567536 -0.485826 -2.67699 0.408845 -0.285667 0.866741 82 72 65
-0.550748 -0.485727 -2.67939 0.169104 -0.323313 0.93106 54 13 10
-0.532665 -0.484705 -2.67599 -0.130974 -0.295144 0.946433 28 25 23
-0.515587 -0.485366 -2.67039 -0.258348 -0.397933 0.880287 28 32 26
-0.500998 -0.500056 -2.65824 -0.513959 -0.483729 0.708415 34 38 33
-0.493045 -0.488486 -2.64742 -0.0435893 -0.370688 0.927734 39 40 36
-0.48499 -0.501016 -2.65266 -0.397552 -0.385011 0.832898 52 52 49
-0.477332 -0.48853 -2.64646 -0.0682851 -0.427337 0.90151 55 55 52
-0.468759 -0.501678 -2.64848 -0.142397 -0.361794 0.921319 38 36 33
-0.451996 -0.496425 -2.65197 0.309489 -0.456729 0.834035 38 33 32
-0.435685 -0.492258 -2.67084 0.587375 -0.0218457 0.80902 54 46 48
-0.419951 -0.49221 -2.68062 0.240644 -0.0551559 0.969045 50 46 48
-0.404463 -0.49268 -2.684 0.317683 -0.0926979 0.943655 48 55 47
-0.38778 -0.492862 -2.68869 0.357011 -0.194426 0.913642 63 84 59
-0.376481 -0.494514 -2.69379 0.378112 -0.192288 0.90557 80 100 67
-0.362206 -0.494624 -2.69955 0.396266 -0.280416 0.874265 52 54 31
-0.348066 -0.494602 -2.70568 0.372824 -0.28778 0.882148 32 28 17
-0.333548 -0.4956 -2.70673 0.20792 -0.466756 0.859598 18 18 14
-0.269772 -0.515506 -2.63151 -0.552795 -0.313694 0.772019 45 29 16
-0.2418 -0.517667 -2.62373 0.0245091 -0.302064 0.952973 112 60 30
-0.244298 -0.5188 -2.62204 0.214175 -0.322967 0.921858 108 58 30
-0.234451 -0.529818 -2.62934 -0.180534 -0.399025 0.898992 136 76 41
-0.217754 -0.530808 -2.62827 -0.0608282 -0.20133 0.977633 135 79 45
-0.196904 -0.526746 -2.63296 0.4575 -0.416918 0.785413 160 99 56
-0.184562 -0.52757 -2.63594 0.276241 -0.341579 0.89834 149 88 49
-0.150929 -0.529078 -2.64598 0.258556 -0.290458 0.921294 208 185 42
-0.136794 -0.528614 -2.65049 0.2514 -0.315871 0.91489 75 58 22
-0.122537 -0.528492 -2.65425 0.284703 -0.311031 0.906755 29 26 26
-0.107585 -0.528104 -2.65641 0.275959 -0.228471 0.933621 29 28 26
-0.09885 -0.541234 -2.65955 0.31121 -0.228181 0.922541 26 25 23
-0.0754731 -0.528061 -2.66369 0.234689 -0.194411 0.952431 23 21 21
-0.0906518 -0.52816 -2.6596 0.259326 -0.206892 0.943369 27 25 24
-0.0905265 -0.527532 -2.65691 0.21824 -0.0554808 0.974317 27 25 24
-0.0527984 -0.539701 -2.68367 0.120749 -0.209208 0.970387 28 25 27
-0.0360867 -0.537122 -2.70292 0.448626 0.293174 0.844265 24 23 21
-0.0173181 -0.540185 -2.69022 0.7837 0.0806594 0.615881 22 21 20
-0.00032625 -0.538486 -2.7043 0.501307 0.028689 0.864794 30 27 30
-0.00140979 -0.537668 -2.70492 0.623534 0.153266 0.766625 33 29 34
0.0163785 -0.5418 -2.70408 0.350667 -0.226242 0.908761 31 28 30
0.0436666 -0.541324 -2.71455 0.319201 -0.19518 0.92737 34 30 32
0.0592816 -0.541776 -2.71957 0.309281 -0.195364 0.930687 31 29 28
0.0743109 -0.542245 -2.72222 0.283733 -0.230581 0.930768 34 30 30
0.0890221 -0.542309 -2.72677 0.260319 -0.208444 0.942754 48 29 25
0.104025 -0.542479 -2.73 0.175099 -0.219006 0.959884 187 43 42
0.103594 -0.542558 -2.73013 0.187046 -0.21953 0.957507 182 43 41
0.132507 -0.542796 -2.74299 0.378813 -0.313164 0.870878 170 51 40
0.375997 -0.502917 -3.0805 -0.0118576 0.448474 0.893717 74 80 73
0.397516 -0.499968 -3.08557 -0.608501 0.378348 0.697553 23 23 17
0.406658 -0.517061 -3.0679 -0.678345 0.26914 0.683675 20 25 15
0.441954 -0.528443 -2.99335 -0.895641 -0.103007 0.432686 41 73 26
0.469472 -0.52495 -2.96764 -0.904563 -0.130137 0.405994 90 147 71
0.496765 -0.535978 -2.93976 -0.374032 0.573371 0.728935 100 161 77
0.515351 -0.541967 -2.93241 -0.29365 0.575592 0.763193 100 160 79
0.532984 -0.540254 -2.9197 -0.698469 0.471771 0.538121 67 94 42
0.536882 -0.55672 -2.90648 -0.736946 0.289207 0.610959 73 82 36
0.571471 -0.570563 -2.87489 -0.233295 -0.377881 0.89598 113 107 68
0.592006 -0.570214 -2.86749 -0.383598 -0.388058 0.838012 120 147 96
0.587736 -0.560978 -2.85586 -0.407101 -0.400826 0.820736 119 131 93
0.854508 -0.50784 -3.32192 -0.739344 -0.343085 0.579364 69 63 58
0.879467 -0.52021 -3.28373 -0.360724 -0.225329 0.905044 27 24 20
0.895063 -0.51626 -3.24743 -0.559609 -0.228219 0.796715 35 34 28
0.89503 -0.516317 -3.2476 -0.559654 -0.238389 0.793699 35 34 28
0.914515 -0.520595 -3.22955 -0.360765 -0.30293 0.882089 79 73 64
0.914652 -0.520414 -3.22978 -0.368094 -0.308337 0.877175 79 73 64
0.951557 -0.532625 -3.24177 -0.149063 -0.604838 0.782273 95 82 75
0.977126 -0.52465 -3.23547 0.0121806 -0.656804 0.753963 119 114 109
1.00477 -0.537961 -3.24233 -0.245563 -0.714844 0.65475 134 128 135
-0.866587 -0.437098 -2.80953 -0.408486 -0.00741836 0.912735 17 14 11
-0.872959 -0.440511 -2.81471 -0.226647 -0.045856 0.972897 16 13 11
-0.850913 -0.438642 -2.8139 -0.47837 -0.308934 0.822023 25 19 16
-0.71911 -0.49571 -2.63283 0.513959 -0.0731034 0.854694 28 19 17
-0.701772 -0.499107 -2.62386 0.454459 -0.23832 0.858295 25 20 18
-0.694518 -0.486331 -2.6303 0.220695 -0.339344 0.914407 27 20 18
-0.687692 -0.500244 -2.63634 0.318302 -0.297981 0.89994 26 24 24
-0.678244 -0.486199 -2.63516 0.258556 -0.331951 0.90717 85 57 63
-0.672298 -0.500569 -2.64229 0.235784 -0.31519 0.919272 129 80 95
-0.655191 -0.500083 -2.64656 0.233277 -0.32464 0.916619 169 66 87
-0.637539 -0.498125 -2.65167 0.29457 -0.286865 0.911558 197 96 116
-0.637747 -0.498191 -2.65163 0.291774 -0.286963 0.912426 197 95 116
-0.620098 -0.497911 -2.65694 0.413414 -0.216107 0.884526 155 139 148
-0.605224 -0.498229 -2.6642 0.350228 -0.259571 0.89998 83 162 177
-0.605455 -0.498288 -2.66412 0.344614 -0.260212 0.901959 84 162 176
-0.592631 -0.500041 -2.67098 0.422482 -0.311099 0.851308 69 158 181
-0.577569 -0.499616 -2.6771 0.393291 -0.288632 0.872934 92 155 158
-0.562118 -0.499696 -2.68332 0.329791 -0.300652 0.8949 76 48 41
-0.560145 -0.499749 -2.68353 0.282361 -0.302166 0.910477 74 39 32
-0.561652 -0.499287 -2.68329 0.32372 -0.303488 0.896159 75 45 39
-0.543465 -0.499725 -2.6864 0.195776 -0.299138 0.93391 37 17 11
-0.525022 -0.495196 -2.68284 0.239999 -0.321539 0.915977 27 28 26
-0.505536 -0.512917 -2.67133 -0.42866 -0.305667 0.850187 26 32 27
-0.473389 -0.508214 -2.65201 -0.184556 -0.401283 0.897169 55 54 52
-0.458494 -0.508024 -2.65861 0.275208 -0.393392 0.877213 35 32 30
-0.443883 -0.506457 -2.66773 0.506727 -0.180261 0.84305 46 42 42
-0.421941 -0.520259 -2.68139 0.356155 -0.270126 0.894531 69 100 73
-0.436824 -0.520138 -2.67611 0.284684 -0.205686 0.936295 45 49 43
-0.428081 -0.506411 -2.6776 0.250472 -0.152483 0.95604 46 48 46
-0.407518 -0.5203 -2.68756 0.389074 -0.280887 0.877339 102 157 109
-0.413207 -0.506961 -2.68206 0.340093 -0.22143 0.913951 54 73 57
-0.393729 -0.520387 -2.69401 0.424383 -0.323198 0.845838 106 170 110
-0.398761 -0.507143 -2.68751 0.383737 -0.236714 0.892588 93 133 95
-0.398703 -0.507591 -2.68755 0.385032 -0.243591 0.890176 95 136 97
-0.382435 -0.508728 -2.6949 0.408946 -0.342833 0.845712 104 151 98
-0.365758 -0.520113 -2.70662 0.364293 -0.352738 0.861897 46 57 33
-0.356858 -0.507412 -2.70653 0.386695 -0.304082 0.870633 38 38 19
-0.371017 -0.507595 -2.69959 0.385057 -0.308438 0.869826 75 97 58
-0.351577 -0.520484 -2.71063 0.254099 -0.342112 0.904651 25 20 13
-0.342584 -0.508601 -2.70665 0.122932 -0.278084 0.952658 22 18 12
-0.33633 -0.522101 -2.70624 0.00840703 -0.451201 0.892383 14 11 11
-0.319526 -0.5243 -2.69461 -0.318533 -0.371763 0.871969 11 12 12
-0.297077 -0.518983 -2.69551 -0.682519 -0.0271425 0.730364 16 15 11
-0.297621 -0.5256 -2.68997 -0.375621 -0.0732384 0.923875 14 14 10
-0.299675 -0.52856 -2.69703 -0.787097 0.0640901 0.613491 13 14 11
-0.28589 -0.533777 -2.68785 -0.478049 -0.248768 0.842368 25 20 13
-0.280566 -0.519004 -2.68626 -0.510468 -0.111327 0.85266 35 25 16
-0.281005 -0.525529 -2.68113 -0.451476 -0.192179 0.871342 43 28 17
-0.266077 -0.531556 -2.62898 -0.371761 -0.343096 0.8626 45 28 14
-0.248552 -0.532921 -2.62658 -0.0473217 -0.304577 0.951312 94 51 26
-0.257756 -0.544992 -2.63311 -0.262989 -0.364048 0.89348 59 32 13
-0.241473 -0.544745 -2.63258 -0.128994 -0.350413 0.92767 111 59 31
-0.228058 -0.541149 -2.63453 -0.219299 -0.388344 0.89504 139 79 45
-0.210777 -0.542857 -2.63268 -0.0224984 -0.211882 0.977036 132 78 44
-0.193432 -0.538829 -2.6378 0.393214 -0.297017 0.870152 171 107 62
-0.178278 -0.538936 -2.64544 -0.0193627 -0.283091 0.958898 134 76 33
-0.159957 -0.540655 -2.64876 0.145221 -0.314639 0.938037 207 176 44
-0.171153 -0.552921 -2.64949 0.290255 -0.303331 0.907603 152 101 40
-0.144576 -0.541698 -2.65156 0.318046 -0.278527 0.906239 178 153 51
-0.153571 -0.553224 -2.65354 0.152405 -0.303668 0.94051 208 182 42
-0.153454 -0.553274 -2.65353 0.15307 -0.303522 0.940449 208 182 42
-0.130847 -0.540763 -2.65598 0.290692 -0.322533 0.900817 39 28 23
-0.138641 -0.553574 -2.65679 0.232175 -0.287004 0.929367 116 96 35
-0.115944 -0.541337 -2.65852 0.295904 -0.279606 0.913379 26 26 24
-0.122989 -0.555884 -2.65856 -0.0117863 -0.326074 0.945271 28 25 24
-0.0854141 -0.557031 -2.67583 0.7016 0.16229 0.693844 25 23 25
-0.0710633 -0.554203 -2.68371 0.379148 0.0641597 0.923109 21 19 20
-0.054562 -0.554567 -2.68733 0.236589 -0.162562 0.957914 22 22 20
-0.0387544 -0.554328 -2.69169 0.249411 -0.155734 0.955793 27 26 25
-0.00870057 -0.553881 -2.7009 0.278022 -0.204206 0.938618 26 27 25
-0.00870524 -0.552829 -2.70306 0.281644 -0.0970224 0.954601 26 26 25
-0.0222792 -0.555976 -2.69393 0.263692 -0.15024 0.952835 29 28 27
0.00716928 -0.55374 -2.70612 0.259836 -0.162913 0.951811 26 26 24
0.021136 -0.551466 -2.71311 0.213866 0.0226917 0.976599 30 31 30
0.035343 -0.555146 -2.71423 0.28801 -0.148594 0.946029 37 35 33
0.0506619 -0.555308 -2.718 0.304567 -0.220471 0.926624 38 34 32
0.0655714 -0.555203 -2.72347 0.30714 -0.177047 0.93505 44 35 35
0.0806326 -0.555396 -2.72736 0.306312 -0.237394 0.921855 56 42 43
0.0953977 -0.555395 -2.73227 0.318084 -0.241647 0.916749 88 31 26
0.110171 -0.555375 -2.73751 0.322924 -0.158143 0.933119 225 49 46
0.126105 -0.554635 -2.74529 0.474495 -0.127415 0.870988 232 56 54
0.211263 -0.550873 -2.87909 -0.231774 0.56464 0.792125 60 75 30
0.275212 -0.55125 -2.89495 -0.683568 0.133592 0.717557 129 145 120
0.389076 -0.521484 -3.07432 -0.00917467 0.66588 0.746003 73 81 70
0.412609 -0.533852 -3.05965 -0.476957 0.497947 0.724265 26 26 20
0.434139 -0.538463 -3.01718 -0.881142 0.168767 0.441709 26 40 17
0.421136 -0.542654 -3.00127 -0.828876 0.0508812 0.557114 25 35 19
0.452068 -0.54297 -2.96465 -0.86749 -0.033172 0.496347 58 97 41
0.465083 -0.555634 -2.94801 -0.879547 -0.0326309 0.474691 63 104 48
0.476913 -0.568054 -2.9291 -0.795326 0.00484613 0.606162 69 115 52
0.499253 -0.562433 -2.924 -0.288095 0.430065 0.855596 92 151 71
0.518936 -0.55859 -2.91816 -0.605623 0.455506 0.652483 94 154 75
0.525568 -0.575765 -2.90137 -0.583826 0.175483 0.792687 94 134 67
0.546171 -0.573571 -2.8864 -0.574053 0.108521 0.811595 82 72 32
0.553232 -0.574565 -2.87776 -0.625088 0.213928 0.750666 97 88 45
0.627036 -0.585689 -2.87357 -0.549523 0.338984 0.763619 142 150 132
0.85953 -0.521434 -3.30108 -0.768431 -0.311941 0.558755 79 76 72
0.867083 -0.537837 -3.27762 -0.756762 -0.32193 0.568922 62 60 56
0.886466 -0.536316 -3.25864 -0.349952 -0.209744 0.912985 26 24 20
0.882183 -0.543614 -3.25161 -0.517373 -0.247295 0.81925 27 25 21
0.904787 -0.548148 -3.24556 -0.0820054 0.143628 0.986228 52 53 46
0.952682 -0.556452 -3.26048 0.0386101 -0.49895 0.86577 109 98 91
0.978899 -0.549692 -3.26234 -0.227944 -0.506198 0.831748 84 73 64
1.0041 -0.559685 -3.26413 -0.195597 -0.671126 0.715074 146 140 143
1.03206 -0.553486 -3.2509 -0.227369 -0.712379 0.663942 91 86 91
-0.860862 -0.458203 -2.81886 -0.304412 -0.302433 0.903254 16 13 11
-0.862997 -0.457523 -2.81272 0.852268 -0.224207 0.47262 15 12 11
-0.84522 -0.46107 -2.83698 -0.189327 -0.640863 0.743942 27 21 17
-0.695488 -0.515355 -2.63482 0.538799 -0.252918 0.803572 25 21 17
-0.681475 -0.514367 -2.64499 0.234212 -0.282073 0.930365 41 29 34
-0.665533 -0.51437 -2.64902 0.203264 -0.31123 0.928343 168 101 116
-0.649751 -0.514516 -2.65338 0.208123 -0.309529 0.927834 160 48 69
-0.630651 -0.511998 -2.65763 0.242263 -0.380453 0.892504 192 102 126
-0.630817 -0.512091 -2.6576 0.239196 -0.379032 0.893935 193 102 126
-0.614533 -0.511648 -2.66401 0.448515 -0.25664 0.856137 139 152 157
-0.614634 -0.511761 -2.66383 0.45221 -0.265949 0.851339 140 152 157
-0.598588 -0.512522 -2.67153 0.448809 -0.218029 0.866622 77 162 175
-0.598535 -0.512336 -2.67153 0.449211 -0.218068 0.866404 76 162 175
-0.570955 -0.512999 -2.68461 0.401095 -0.265585 0.876691 89 123 123
-0.571396 -0.513402 -2.68451 0.392625 -0.272464 0.878413 89 127 127
-0.58406 -0.512591 -2.6784 0.441805 -0.237602 0.865074 73 162 181
-0.554831 -0.512633 -2.68808 0.130628 -0.326677 0.936065 68 32 21
-0.555389 -0.513084 -2.68836 0.139426 -0.325407 0.935238 69 34 23
-0.53599 -0.513658 -2.69226 0.2383 -0.303406 0.922582 30 21 17
-0.519205 -0.514672 -2.69118 0.279557 -0.443708 0.851452 26 31 25
-0.498702 -0.520181 -2.66313 -0.248296 -0.377982 0.891896 28 35 30
-0.475008 -0.535007 -2.66239 0.453406 -0.204381 0.867555 61 59 57
-0.48269 -0.520256 -2.65902 -0.207768 -0.398392 0.893373 48 50 47
-0.45967 -0.535383 -2.66791 0.330624 -0.256005 0.908377 41 40 40
-0.467571 -0.520804 -2.66178 0.335466 -0.308123 0.890237 44 42 42
-0.452767 -0.520876 -2.66732 0.355386 -0.294897 0.886982 45 40 41
-0.445678 -0.534753 -2.6747 0.357801 -0.271737 0.893385 46 59 47
-0.430752 -0.533819 -2.67934 0.386836 -0.293758 0.874108 86 128 88
-0.416708 -0.533152 -2.68718 0.398328 -0.293494 0.86902 103 162 110
-0.416269 -0.533475 -2.68751 0.400344 -0.291588 0.868735 103 163 110
-0.40253 -0.533168 -2.6936 0.398543 -0.294942 0.868431 99 159 109
-0.388747 -0.533268 -2.69996 0.377295 -0.318776 0.8695 92 136 96
-0.374526 -0.533244 -2.70626 0.35366 -0.304321 0.884485 46 64 42
-0.360017 -0.533236 -2.71211 0.334383 -0.358011 0.871789 21 20 12
-0.345197 -0.53448 -2.7111 0.0949585 -0.366689 0.925485 16 12 13
-0.32514 -0.539899 -2.70189 -0.521311 -0.436992 0.732988 10 10 8
-0.292007 -0.543576 -2.71254 -0.244802 -0.381731 0.891265 18 18 13
-0.301219 -0.530059 -2.7124 -0.64648 -0.0796517 0.758762 11 13 9
-0.285538 -0.53877 -2.67681 -0.435753 -0.276257 0.856622 25 21 15
-0.269644 -0.539562 -2.67287 -0.475397 -0.236324 0.847437 45 27 16
-0.272512 -0.541718 -2.65547 -0.727047 -0.235423 0.644964 42 26 16
-0.234002 -0.556307 -2.63833 -0.135852 -0.406777 0.90337 120 61 31
-0.21737 -0.555693 -2.63928 0.0295696 -0.436079 0.899422 133 76 41
-0.201448 -0.555141 -2.64289 0.479317 -0.427746 0.766348 151 93 54
-0.179651 -0.565695 -2.65509 -0.0109507 -0.345719 0.938274 142 85 43
-0.186933 -0.553693 -2.64876 -0.0184814 -0.433672 0.900881 155 94 51
-0.162288 -0.56554 -2.65648 0.237479 -0.355584 0.903971 191 154 46
-0.146999 -0.565978 -2.65879 0.177561 -0.303975 0.935987 202 179 49
-0.131434 -0.568621 -2.66391 0.181739 -0.325265 0.927994 47 35 17
-0.132497 -0.565724 -2.66276 0.188341 -0.320755 0.928248 51 38 18
-0.117339 -0.565549 -2.66743 0.143969 -0.342763 0.928324 25 25 22
-0.101348 -0.567129 -2.66782 0.181109 -0.296341 0.937753 26 26 24
-0.0807973 -0.567075 -2.68439 0.291373 -0.143695 0.945755 23 23 21
-0.0651019 -0.565612 -2.69038 0.243899 -0.0238393 0.969508 20 21 18
-0.0486533 -0.565911 -2.69392 0.233615 -0.0614178 0.970387 26 24 21
-0.0324057 -0.566626 -2.69749 0.269747 -0.0978593 0.957946 36 31 29
-0.0171124 -0.566745 -2.7017 0.259967 -0.0843577 0.961926 40 35 34
-0.00105613 -0.567772 -2.7058 0.268291 -0.103108 0.957804 57 46 45
0.0145647 -0.567985 -2.70896 0.293583 -0.223295 0.929488 73 54 53
0.0131125 -0.56762 -2.70915 0.266819 -0.148788 0.952192 69 51 50
0.027397 -0.567514 -2.71256 0.262727 -0.288219 0.920817 88 68 66
0.0417067 -0.567454 -2.71678 0.295268 -0.245852 0.923241 100 77 76
0.0478438 -0.579834 -2.72233 0.293857 -0.278408 0.914405 136 95 95
0.0560861 -0.567361 -2.72112 0.311155 -0.277475 0.90895 118 94 94
0.062387 -0.579497 -2.72704 0.303133 -0.290671 0.907536 120 78 76
0.0722019 -0.569114 -2.72682 0.370978 -0.383294 0.845849 145 110 114
0.0766779 -0.579428 -2.73221 0.307377 -0.270546 0.912318 102 64 56
0.0870013 -0.56849 -2.73281 0.296604 -0.231015 0.926638 132 95 94
0.0934486 -0.581412 -2.73733 0.299388 -0.214638 0.929676 108 39 27
0.108666 -0.581028 -2.74447 0.35344 -0.287173 0.890288 214 48 40
0.102983 -0.568215 -2.73842 0.308084 -0.258814 0.915478 167 38 36
0.123088 -0.580897 -2.75095 0.473082 -0.329665 0.817015 242 53 51
0.117326 -0.568164 -2.7444 0.379892 -0.242697 0.892626 235 52 43
0.133546 -0.567048 -2.75137 0.772026 -0.050738 0.633563 171 52 39
0.137652 -0.580905 -2.75619 0.48898 -0.318761 0.811967 130 43 28
0.178062 -0.557626 -2.85029 0.69878 -0.149264 0.699591 40 44 22
0.211352 -0.568221 -2.86975 -0.00551406 0.583763 0.811905 49 64 22
0.296197 -0.574955 -2.88407 -0.209139 0.418543 0.883789 133 144 129
0.419427 -0.55179 -3.0423 -0.635839 0.352323 0.686714 33 35 28
0.444796 -0.554601 -3.00042 -0.86851 0.17019 0.465539 30 45 23
0.468051 -0.577778 -2.95971 -0.849898 -0.257031 0.46001 46 74 32
0.491072 -0.580729 -2.93027 -0.715774 0.214207 0.664667 69 112 54
0.515811 -0.594803 -2.90305 -0.591641 0.314861 0.742175 80 128 62
0.50762 -0.578635 -2.91328 -0.553152 0.284826 0.782877 89 143 70
0.5339 -0.591244 -2.89169 -0.478612 0.430965 0.764984 62 102 36
0.563132 -0.591632 -2.87579 0.155859 0.61075 0.776332 114 171 91
0.56379 -0.608808 -2.86449 -0.30371 0.662237 0.684984 107 176 87
0.586834 -0.60661 -2.87101 0.191664 0.56332 0.803701 123 186 95
0.61101 -0.598987 -2.88273 0.310426 0.617674 0.722575 129 181 102
0.630746 -0.606725 -2.87974 0.0765879 0.683957 0.725491 132 167 111
0.650726 -0.614208 -2.86895 -0.704113 0.312932 0.637415 141 154 137
0.87195 -0.557958 -3.25367 -0.864682 -0.302032 0.401374 81 76 76
0.91775 -0.571524 -3.24824 0.107396 0.0775866 0.991184 74 73 67
0.981348 -0.574475 -3.28632 -0.147977 -0.531654 0.833934 95 82 75
1.02143 -0.576202 -3.26162 -0.75237 -0.517413 0.407704 91 85 90
-0.867536 -0.475336 -2.82213 0.697816 -0.491117 0.521398 13 11 9
-0.849917 -0.467564 -2.85827 -0.0987097 -0.688268 0.71871 27 20 16
-0.690196 -0.528909 -2.6437 0.46701 -0.24963 0.848284 25 21 19
-0.674688 -0.528559 -2.65184 0.27572 -0.272787 0.921719 77 52 61
-0.658359 -0.528528 -2.6561 0.218525 -0.311135 0.924901 183 117 121
-0.642198 -0.528481 -2.66017 0.251418 -0.305965 0.918245 170 52 78
-0.623828 -0.525828 -2.66441 0.252974 -0.347752 0.902814 185 108 127
-0.623943 -0.525969 -2.66435 0.25052 -0.343432 0.905149 185 108 126
-0.607794 -0.525329 -2.67164 0.456739 -0.240789 0.856394 132 174 164
-0.607868 -0.525444 -2.67168 0.460111 -0.238911 0.855114 133 174 163
-0.59485 -0.526838 -2.67816 0.399846 -0.24834 0.882298 78 160 173
-0.580572 -0.527162 -2.68508 0.420997 -0.264415 0.867667 74 157 176
-0.580114 -0.526806 -2.68509 0.420312 -0.266715 0.867295 75 157 175
-0.564366 -0.526783 -2.69185 0.375706 -0.280778 0.883181 87 92 83
-0.565503 -0.527117 -2.69152 0.379757 -0.28148 0.881223 88 100 92
-0.565071 -0.526739 -2.69155 0.375492 -0.285502 0.881756 87 97 88
-0.547408 -0.526385 -2.69464 0.131569 -0.334628 0.933121 54 26 12
-0.530169 -0.524819 -2.69457 0.18116 -0.312945 0.932334 29 23 20
-0.512738 -0.529283 -2.68737 0.00363783 -0.440665 0.897664 26 33 26
-0.488555 -0.535827 -2.65394 0.535986 -0.183956 0.823941 30 35 30
-0.502198 -0.545793 -2.67766 -0.347546 -0.131081 0.928455 26 32 27
-0.482163 -0.550264 -2.66057 0.610411 -0.150056 0.777741 37 38 35
-0.468342 -0.549026 -2.66801 0.358031 -0.247626 0.900275 53 54 48
-0.453559 -0.549082 -2.674 0.366556 -0.266776 0.891329 58 86 63
-0.425848 -0.546109 -2.68693 0.398448 -0.257486 0.880307 100 162 103
-0.439457 -0.546982 -2.67936 0.380813 -0.283876 0.879998 94 144 100
-0.411254 -0.546228 -2.6931 0.416176 -0.200267 0.886956 95 145 101
-0.397073 -0.546303 -2.69919 0.36716 -0.243249 0.897788 74 103 79
-0.383317 -0.546203 -2.70581 0.347526 -0.248568 0.904124 47 56 48
-0.368786 -0.546313 -2.71198 0.331559 -0.326618 0.885093 29 29 25
-0.354499 -0.546547 -2.71443 0.301062 -0.377783 0.875581 19 16 14
-0.339959 -0.547711 -2.71284 0.017434 -0.292098 0.956229 13 11 11
-0.298827 -0.558135 -2.72217 -0.242465 -0.380124 0.89259 20 16 11
-0.307661 -0.543752 -2.71585 -0.196288 -0.59442 0.77983 9 9 8
-0.282706 -0.558417 -2.72152 0.0117614 -0.436775 0.899494 33 27 18
-0.278547 -0.558587 -2.7007 -0.491731 -0.482284 0.724985 36 29 18
-0.276209 -0.557686 -2.66743 -0.742153 -0.284146 0.607017 36 26 15
-0.242335 -0.568792 -2.643 -0.0037197 -0.429503 0.903058 108 57 32
-0.224907 -0.569595 -2.64233 0.170532 -0.271913 0.947091 124 70 38
-0.209409 -0.569608 -2.64505 0.0732653 -0.337781 0.938369 133 81 46
-0.188279 -0.579453 -2.65566 0.30448 -0.309767 0.900742 155 93 51
-0.187035 -0.579185 -2.65665 -0.0869924 -0.418037 0.904255 143 80 41
-0.195304 -0.567309 -2.64905 0.210808 -0.323656 0.922392 152 92 52
-0.172348 -0.578939 -2.65971 0.171881 -0.335815 0.926113 146 94 40
-0.154442 -0.580527 -2.66351 0.0610965 -0.325086 0.943709 210 182 44
-0.139331 -0.581341 -2.66612 0.230226 -0.297508 0.926545 143 125 44
-0.125032 -0.580705 -2.66979 0.232057 -0.308304 0.92255 35 26 22
-0.111135 -0.579979 -2.6743 0.311339 -0.22421 0.92347 32 27 27
-0.0944897 -0.581682 -2.682 0.35218 -0.240234 0.904575 38 29 29
-0.0686568 -0.580907 -2.68835 0.285267 -0.245005 0.926604 58 44 43
-0.0545392 -0.580906 -2.69242 0.237097 -0.283795 0.92911 64 45 43
-0.0402666 -0.581284 -2.69649 0.229805 -0.280368 0.931978 114 88 87
-0.0260781 -0.581194 -2.7004 0.242451 -0.263451 0.933708 131 99 98
-0.0120171 -0.581151 -2.70376 0.281113 -0.328755 0.901607 130 95 95
0.00509556 -0.579694 -2.70906 0.279877 -0.279527 0.918441 133 98 101
0.0111828 -0.591992 -2.71412 0.283964 -0.272419 0.919322 93 46 40
0.0193156 -0.579642 -2.71318 0.257519 -0.283869 0.923636 134 98 100
0.0254251 -0.592084 -2.71838 0.26981 -0.259445 0.927303 99 39 34
0.0335641 -0.579726 -2.7176 0.268572 -0.280094 0.921638 137 99 99
0.0397045 -0.592068 -2.72297 0.30253 -0.278207 0.911634 116 38 33
0.0540129 -0.59194 -2.72849 0.3301 -0.299671 0.895115 140 34 35
0.0680836 -0.591633 -2.73207 0.29715 -0.254735 0.920224 160 37 36
0.0853026 -0.594428 -2.73881 0.31097 -0.193565 0.9305 210 43 44
0.100126 -0.594457 -2.74341 0.411621 -0.0958043 0.906306 230 44 44
0.114494 -0.593691 -2.75145 0.417919 -0.225325 0.880098 240 49 42
0.129405 -0.593386 -2.76031 0.445499 -0.297254 0.844495 221 54 47
0.142722 -0.594099 -2.76321 0.747599 -0.103006 0.656114 86 48 27
0.157298 -0.584142 -2.77676 0.710332 0.00232869 0.703863 48 57 36
0.172198 -0.595103 -2.78511 0.64957 -0.110032 0.752298 27 28 16
0.192396 -0.577417 -2.86232 0.549954 -0.106543 0.828372 41 48 15
0.192396 -0.577417 -2.86232 0.549954 -0.106543 0.828372 41 48 15
0.275974 -0.586085 -2.87412 -0.256085 0.705591 0.660728 124 173 105
0.296381 -0.591823 -2.86974 -0.258838 0.5619 0.785666 128 147 119
0.315724 -0.597845 -2.8664 -0.10888 0.618113 0.778512 137 142 136
0.382618 -0.571822 -3.02653 0.0175173 0.58324 0.812111 138 149 133
0.409337 -0.583269 -3.02056 -0.039934 0.667383 0.743643 129 138 126
0.430369 -0.566819 -3.02537 -0.754833 0.157137 0.636817 26 31 23
0.440781 -0.583216 -3.00753 -0.830952 -0.0181045 0.55605 26 29 24
0.456808 -0.582408 -2.98099 -0.831115 0.154606 0.534176 25 35 16
0.476769 -0.586968 -2.95365 -0.813424 -0.181058 0.552774 48 74 37
0.498069 -0.597829 -2.91658 -0.853396 -0.256639 0.453708 53 92 38
0.524614 -0.610643 -2.89343 -0.584324 0.291196 0.757477 75 120 56
0.550713 -0.625089 -2.85923 -0.525547 0.41206 0.744316 96 154 74
0.54771 -0.60759 -2.8757 -0.27834 0.525731 0.803824 98 164 80
0.569444 -0.624901 -2.85213 -0.379326 0.417658 0.825635 106 172 84
0.59122 -0.624613 -2.85988 -0.103906 0.692805 0.7136 115 182 92
0.60797 -0.629611 -2.84862 -0.0111051 0.75725 0.653031 119 187 95
0.611713 -0.616368 -2.87286 -0.136384 0.64546 0.751519 124 187 98
0.630801 -0.62337 -2.86582 0.001849 0.746173 0.665749 127 181 106
0.651861 -0.631566 -2.85737 -0.626719 0.536848 0.564816 132 169 116
0.665259 -0.636907 -2.84347 -0.356252 0.553186 0.75304 138 164 123
0.686753 -0.629177 -2.86809 -0.319319 0.628219 0.70949 148 150 142
0.929181 -0.593026 -3.24548 0.307465 0.600362 0.738262 91 87 79
-0.865683 -0.491951 -2.84091 0.735659 -0.445217 0.510478 13 11 10
-0.856692 -0.479884 -2.8458 0.458006 -0.4925 0.74005 19 14 12
-0.852342 -0.495013 -2.85757 0.0205897 -0.607751 0.79386 22 15 12
-0.698158 -0.545003 -2.63424 0.851634 -0.203657 0.482953 30 20 15
-0.683794 -0.542666 -2.65257 0.313197 -0.284235 0.906156 27 22 25
-0.667644 -0.542392 -2.65816 0.228499 -0.336463 0.913554 127 105 104
-0.65131 -0.542352 -2.66247 0.243562 -0.301868 0.921712 161 97 93
-0.634967 -0.542123 -2.66718 0.264812 -0.263636 0.927562 188 65 100
-0.617585 -0.539701 -2.67137 0.36608 -0.26222 0.892875 182 139 131
-0.617694 -0.539837 -2.67126 0.363153 -0.2656 0.893071 182 138 131
-0.602761 -0.539154 -2.67839 0.368064 -0.273036 0.888808 135 179 159
-0.589114 -0.540439 -2.68497 0.413656 -0.266998 0.870403 69 155 176
-0.575093 -0.540326 -2.69149 0.431627 -0.263718 0.862642 82 157 171
-0.574363 -0.540393 -2.69183 0.432827 -0.263823 0.862008 83 156 167
-0.558174 -0.540238 -2.6978 0.217999 -0.317583 0.922831 82 69 53
-0.559408 -0.540592 -2.69773 0.269375 -0.307602 0.912589 83 75 58
-0.558954 -0.540183 -2.69771 0.250039 -0.312009 0.916587 83 72 56
-0.539869 -0.540331 -2.70099 0.227324 -0.236341 0.944705 39 21 11
-0.535101 -0.553781 -2.70341 0.107588 -0.320585 0.94109 32 19 11
-0.522972 -0.541126 -2.70057 0.254286 -0.27156 0.928221 27 25 22
-0.518245 -0.55669 -2.68172 -0.655962 -0.254842 0.710471 28 24 22
-0.510246 -0.557795 -2.68861 -0.109677 -0.452076 0.885211 24 28 24
-0.493042 -0.560516 -2.67202 -0.0569135 -0.420567 0.905475 30 34 30
-0.476511 -0.562968 -2.66769 0.372523 -0.282726 0.883907 48 47 44
-0.462161 -0.562551 -2.67416 0.365349 -0.282952 0.886825 56 87 59
-0.450052 -0.559552 -2.68013 0.34426 -0.269143 0.899471 98 150 105
-0.44763 -0.562335 -2.68048 0.376033 -0.273982 0.885174 99 154 106
-0.433715 -0.560203 -2.68583 0.404086 -0.222011 0.88737 91 141 93
-0.435636 -0.559541 -2.68667 0.395984 -0.254497 0.882286 94 146 97
-0.419752 -0.559738 -2.69305 0.425365 -0.16705 0.889471 81 115 80
-0.420939 -0.559735 -2.69255 0.424513 -0.171019 0.889124 83 117 81
-0.405692 -0.559866 -2.69827 0.386996 -0.144507 0.910688 55 71 55
-0.39094 -0.559916 -2.704 0.339141 -0.169721 0.925299 48 48 48
-0.377592 -0.559036 -2.71327 0.475486 -0.359072 0.803107 43 38 41
-0.363029 -0.559454 -2.71629 0.371359 -0.344234 0.86232 26 21 21
-0.375516 -0.55927 -2.71342 0.472567 -0.361869 0.803574 41 36 39
-0.347753 -0.560949 -2.72046 -0.160212 -0.449185 0.878957 16 14 11
-0.340732 -0.566752 -2.73439 -0.0805565 -0.456887 0.885869 13 12 10
-0.316472 -0.564382 -2.7352 0.296786 -0.346062 0.890033 8 9 7
-0.30725 -0.570367 -2.73016 0.120383 -0.347001 0.930107 12 10 8
-0.291239 -0.572157 -2.72047 0.0550405 -0.431072 0.900637 21 20 14
-0.269187 -0.578104 -2.64245 -0.479103 -0.259388 0.838557 38 27 16
-0.250546 -0.582282 -2.64404 -0.0232768 -0.373468 0.927351 72 39 19
-0.23329 -0.582603 -2.64529 -0.114713 -0.406904 0.90624 123 66 34
-0.233286 -0.586742 -2.64038 0.143149 -0.346799 0.926951 112 60 30
-0.217766 -0.582529 -2.64852 0.259699 -0.247514 0.933431 121 69 35
-0.211341 -0.595306 -2.65392 0.13292 -0.432494 0.891785 145 86 48
-0.202331 -0.583333 -2.65167 0.1545 -0.43573 0.886718 150 89 49
-0.194584 -0.592037 -2.65734 0.339251 -0.323742 0.883232 170 106 63
-0.166557 -0.592293 -2.66547 0.1917 -0.314284 0.929772 155 109 36
-0.180493 -0.591782 -2.66417 0.0597035 -0.330016 0.942085 143 86 42
-0.147771 -0.593363 -2.66848 0.251702 -0.307881 0.917527 204 181 43
-0.133335 -0.593248 -2.67223 0.207099 -0.336557 0.918607 74 56 23
-0.11916 -0.592432 -2.67608 0.208619 -0.36142 0.908765 80 64 62
-0.104549 -0.593247 -2.68243 0.269652 -0.233294 0.934271 95 77 72
-0.0906409 -0.593474 -2.68508 0.268744 -0.358911 0.893846 83 63 57
-0.0706821 -0.605565 -2.69432 0.263499 -0.263654 0.927931 79 63 30
-0.0766738 -0.593612 -2.68846 0.305973 -0.408348 0.860019 98 72 67
-0.0564683 -0.605544 -2.69849 0.255188 -0.250092 0.933988 98 85 34
-0.0625114 -0.592986 -2.69462 0.265557 -0.281578 0.922059 116 87 86
-0.0421594 -0.605547 -2.70237 0.242178 -0.250555 0.937322 117 104 42
-0.0342035 -0.593235 -2.70177 0.219481 -0.327516 0.919 97 74 67
-0.0278231 -0.605678 -2.70674 0.230675 -0.298311 0.926175 143 118 58
-0.0200087 -0.593137 -2.70576 0.253473 -0.299634 0.919767 94 67 60
-0.0135992 -0.605564 -2.711 0.269957 -0.320939 0.907811 152 70 36
0.00115366 -0.605231 -2.71595 0.31515 -0.345663 0.883854 185 42 33
0.00312523 -0.604568 -2.71541 0.30969 -0.238786 0.920366 185 40 34
0.0173944 -0.604616 -2.71992 0.299075 -0.24129 0.923219 206 38 38
0.0171179 -0.604278 -2.71973 0.291067 -0.293696 0.910507 204 38 38
0.0292208 -0.60532 -2.72432 0.286761 -0.289743 0.913136 220 41 41
0.045522 -0.604678 -2.72767 0.263814 -0.189921 0.945691 228 45 44
0.0742941 -0.604026 -2.736 0.33095 -0.147105 0.932112 239 44 41
0.0919335 -0.607452 -2.74212 0.321908 -0.174996 0.930458 239 47 43
0.108253 -0.608545 -2.75369 0.450942 -0.22677 0.863265 243 46 41
0.122865 -0.608368 -2.76238 0.452962 -0.270084 0.849636 237 53 47
0.13397 -0.607071 -2.76425 0.473421 -0.32372 0.819194 185 51 41
0.203221 -0.609933 -2.82375 -0.0334184 0.371385 0.927878 65 87 38
0.220734 -0.611897 -2.82404 -0.054839 0.475369 0.878076 94 134 66
0.231179 -0.59842 -2.83832 0.20361 0.527618 0.824719 102 150 75
0.27531 -0.616795 -2.83306 -0.0582313 0.652139 0.755859 122 183 100
0.27596 -0.602904 -2.85927 0.183654 0.643287 0.743271 120 183 96
0.297837 -0.609838 -2.85587 0.12825 0.693543 0.708907 128 158 114
0.315298 -0.614763 -2.84706 -0.451479 0.516898 0.727313 134 149 128
0.443842 -0.594968 -3.0009 -0.807652 0.0256845 0.5891 41 43 37
0.454135 -0.610301 -2.98771 -0.65822 0.207804 0.723577 49 52 44
0.468495 -0.60044 -2.96932 -0.775692 0.118143 0.619955 22 29 15
0.482473 -0.60861 -2.95658 -0.736614 0.276606 0.617162 27 40 17
0.507564 -0.620592 -2.90465 -0.858937 -0.233633 0.455679 44 72 30
0.521551 -0.632566 -2.8962 -0.869988 0.0320231 0.492032 50 79 36
0.533717 -0.624797 -2.87301 -0.741708 0.12864 0.658272 81 126 59
0.537294 -0.642003 -2.85842 -0.790644 -0.167451 0.588933 67 110 50
0.579403 -0.638937 -2.85434 -0.402449 0.428536 0.808945 103 168 83
