ply
format ascii 1.0
element vertex 725
property float x
property float y
property float z
property float nx
property float ny
property float nz
property uchar diffuse_red
property uchar diffuse_green
property uchar diffuse_blue
end_header
-2.1542 -0.769699 -8.60732 -0.434857 0.617432 0.655497 161 69 61
-2.1226 -0.772715 -8.63638 -0.336355 0.261037 0.904834 154 67 66
-2.05087 -0.780862 -8.59141 0.263169 0.510711 0.818484 135 57 60
-2.0018 -0.800357 -8.54436 -0.142959 0.554944 0.819512 116 48 42
-1.90026 -0.777025 -8.62332 0.118002 0.283261 0.951756 107 46 46
-1.0909 -0.886637 -7.52104 0.227814 -0.769787 0.596263 69 26 17
-0.982413 -0.88326 -7.5984 0.198811 -0.52214 0.829364 69 25 17
-0.969773 -0.890908 -7.61082 0.511842 -0.330435 0.792988 72 25 16
-0.538165 -0.919753 -7.83824 0.320651 -0.371281 0.871398 90 29 16
-0.498008 -0.916674 -7.87474 0.603692 -0.453369 0.655754 103 30 18
-0.427197 -0.906597 -7.89724 0.505533 -0.299321 0.809224 96 29 18
-0.251317 -0.937759 -7.99038 0.560552 -0.39546 0.727594 78 26 15
-0.213865 -0.939841 -8.01778 0.202575 -0.312358 0.928114 96 30 18
-0.13416 -0.935309 -8.05562 0.592308 -0.428138 0.682546 81 27 16
-0.0906098 -0.935346 -8.08453 0.476951 -0.370011 0.797251 98 30 18
-0.0246458 -0.937843 -8.13052 0.481233 -0.287373 0.828149 81 27 15
0.273625 -0.981201 -8.2579 0.258546 0.727692 0.635309 102 37 19
0.308705 -0.978844 -8.25494 0.347379 0.338321 0.874567 128 53 29
1.05229 -1.02198 -8.2416 -0.40912 0.610195 0.678442 236 127 64
1.05816 -1.05609 -8.22545 -0.643088 0.673984 0.36357 231 120 60
1.09252 -1.02827 -8.23019 -0.49249 0.686543 0.534894 227 111 60
1.19052 -1.06844 -8.14767 -0.572955 0.445678 0.687818 222 84 53
1.23015 -1.03651 -8.15878 -0.549247 0.65367 0.520619 253 99 92
1.27232 -1.06673 -8.08676 -0.385392 0.500254 0.775383 245 91 71
1.29728 -1.0563 -8.0386 -0.754521 0.186574 0.629196 239 106 70
1.31835 -1.07823 -7.9985 -0.826851 0.0289313 0.561677 245 109 77
1.34713 -1.05882 -7.99491 -0.780543 0.124854 0.612506 233 116 63
1.40387 -1.0585 -8.02094 0.0559823 0.827616 0.558495 225 115 59
1.40387 -1.0585 -8.02094 0.0559823 0.827616 0.558495 225 115 59
1.8406 -1.10263 -8.08346 -0.903379 0.156141 0.399407 235 137 75
1.87823 -1.12152 -8.04744 0.304254 0.626164 0.717878 234 134 72
1.87659 -1.12117 -8.04463 0.261649 0.611171 0.747 234 134 72
1.87823 -1.12152 -8.04744 0.304254 0.626164 0.717878 234 134 72
1.87659 -1.12117 -8.04463 0.261649 0.611171 0.747 234 134 72
1.87654 -1.11956 -8.04463 0.299734 0.63802 0.709288 234 134 72
1.8781 -1.12128 -8.04694 0.304129 0.627089 0.717123 234 134 72
1.88933 -1.11007 -8.01756 0.320219 0.621089 0.715338 232 131 70
1.88808 -1.10977 -8.01497 0.311216 0.631254 0.710396 232 131 70
1.89001 -1.10827 -8.01858 0.308889 0.633734 0.709203 232 131 70
1.88959 -1.10985 -8.01784 0.320893 0.620245 0.715769 232 131 70
1.89012 -1.10828 -8.01879 0.306005 0.636984 0.70754 232 131 70
1.88959 -1.10985 -8.01784 0.320893 0.620245 0.715769 232 131 70
2.28419 -1.126 -8.04569 -0.946088 0.184128 0.266485 227 127 68
2.30125 -1.13959 -8.05772 -0.941781 0.184807 0.280883 227 128 67
2.33407 -1.14848 -7.98328 -0.947609 0.188216 0.258093 224 125 72
-2.54435 -0.784856 -8.56105 0.130526 0.852838 0.505599 195 95 61
-2.16632 -0.806428 -8.56315 0.167861 0.158375 0.973006 185 85 74
-2.04704 -0.81579 -8.55547 0.29209 0.518727 0.803496 128 50 41
-1.92621 -0.84293 -8.55734 -0.198547 0.846258 0.494395 98 39 29
-1.82778 -0.819213 -8.52051 -0.528124 0.593372 0.607449 72 31 27
-1.77831 -0.836786 -8.47165 -0.524343 0.546836 0.652714 65 31 31
-1.73836 -0.850164 -8.43106 -0.495336 0.64197 0.58525 64 32 34
-1.0971 -0.920191 -7.54419 0.24902 -0.764314 0.594823 71 26 18
-1.00486 -0.913463 -7.57939 0.285189 -0.651388 0.703108 64 25 18
-0.981502 -0.919941 -7.61879 0.215353 -0.543811 0.811106 69 25 17
-0.940851 -0.920016 -7.6379 0.258482 -0.380826 0.887783 84 27 18
-0.901353 -0.92007 -7.65767 0.446499 -0.444719 0.776443 74 24 17
-0.531884 -0.95862 -7.86468 0.269222 -0.365372 0.891079 89 29 15
-0.47615 -0.94196 -7.88611 0.493433 -0.228412 0.839257 105 31 19
-0.459706 -0.966973 -7.91193 0.5794 -0.246735 0.7768 102 29 16
-0.41434 -0.942907 -7.93312 0.553003 -0.332427 0.763989 95 29 18
-0.343428 -0.949329 -7.98355 0.225554 -0.704926 0.672462 75 25 17
-0.382318 -0.946677 -7.94785 0.260566 -0.57549 0.775188 84 27 16
-0.276001 -0.968545 -7.97606 -0.34127 -0.38574 0.857169 77 28 16
-0.237738 -0.972974 -8.01718 0.33494 -0.38409 0.860401 83 27 18
-0.273329 -0.969298 -7.98125 -0.244391 -0.362623 0.89932 78 28 16
-0.203152 -0.982504 -8.03378 0.275964 -0.351396 0.894631 97 29 18
-0.164037 -0.978655 -8.06086 0.474966 -0.369047 0.798881 87 28 15
-0.117846 -0.972359 -8.08563 0.552729 -0.486962 0.676284 88 28 18
-0.0787084 -0.972344 -8.10802 0.423622 -0.45859 0.781178 99 30 21
-0.0415611 -0.97712 -8.12637 0.406865 -0.535184 0.740296 84 27 18
-0.0233288 -0.989449 -8.15784 0.49824 -0.431476 0.752054 77 26 16
0.014388 -0.986497 -8.13366 -0.608427 -0.494355 0.62083 81 25 14
0.292458 -1.00859 -8.2176 0.1744 0.397063 0.901069 217 113 62
1.09328 -1.06231 -8.19752 -0.530022 0.612274 0.586683 230 120 63
1.14886 -1.06536 -8.1609 -0.0379784 0.624625 0.78 219 96 53
1.16187 -1.09987 -8.12719 -0.272591 0.673171 0.687411 225 111 59
1.22995 -1.09377 -8.09425 -0.600537 0.451898 0.659654 205 79 41
1.22559 -1.07212 -8.12313 -0.533075 0.584277 0.611924 219 72 49
1.28886 -1.09421 -8.03352 -0.567142 0.115481 0.815484 241 94 75
1.38217 -1.11 -7.98914 -0.384833 0.618796 0.684832 239 132 72
1.42338 -1.09155 -8.04375 0.146295 0.787512 0.598685 233 131 71
1.66639 -1.12879 -8.02221 0.523063 -0.0553039 0.850498 234 136 76
1.86749 -1.13451 -8.07963 -0.788398 0.0533507 0.612848 242 141 79
-2.54974 -0.823631 -8.54091 -0.0629155 0.767829 0.637559 202 101 63
-2.2825 -0.816441 -8.4979 -0.165587 0.847085 0.505003 185 84 63
-2.165 -0.84126 -8.52955 0.2966 0.569863 0.766345 180 81 63
-2.09021 -0.83261 -8.54604 0.0827798 0.636459 0.766855 148 62 46
-1.86423 -0.863581 -8.54507 -0.54817 0.466123 0.694434 101 42 35
-1.81782 -0.864076 -8.52051 -0.275779 0.644556 0.713087 95 41 38
-1.77523 -0.875002 -8.48504 -0.230048 0.620968 0.749318 76 33 36
-1.73526 -0.887563 -8.44483 -0.449696 0.539602 0.711761 68 32 38
-1.69459 -0.879568 -8.42175 -0.598416 0.503783 0.622978 67 33 37
-1.6913 -0.894057 -8.3933 -0.658954 0.372098 0.653699 67 33 37
-0.999358 -0.951652 -7.6482 0.254516 -0.435764 0.863326 64 25 16
-0.963219 -0.951512 -7.64158 0.166116 -0.36602 0.915661 77 26 18
-0.925093 -0.951629 -7.65841 0.386464 -0.363224 0.84777 78 26 19
-0.56115 -0.990093 -7.87699 0.171938 -0.488904 0.855226 87 30 19
-0.51379 -0.991405 -7.89338 0.592583 -0.406972 0.695139 93 30 15
-0.407356 -0.979356 -7.94525 0.467536 -0.441397 0.765884 96 31 18
-0.365933 -0.978813 -7.95628 0.311221 -0.43614 0.844347 81 27 16
-0.341185 -0.98704 -8.00452 0.163665 -0.605301 0.77899 75 26 16
-0.259058 -1.00276 -8.00072 0.147579 -0.415878 0.897366 75 26 17
-0.150878 -1.00741 -8.08104 0.473962 -0.264521 0.839874 83 26 14
-0.110476 -1.00939 -8.10815 0.507781 -0.436397 0.742776 90 30 17
-0.0696237 -1.0114 -8.13695 0.607534 -0.386544 0.693892 94 27 14
-0.0390101 -1.01555 -8.11731 -0.460106 -0.513762 0.724121 84 27 15
1.12749 -1.12896 -8.15604 -0.680096 0.182474 0.710051 226 112 58
1.19225 -1.10639 -8.13966 -0.858886 0.204215 0.469691 221 104 54
1.23208 -1.13507 -8.08282 -0.902644 0.182965 0.38956 214 108 61
1.25945 -1.11283 -8.05644 -0.835425 0.159971 0.525808 207 84 49
1.28908 -1.14932 -8.0214 -0.777049 0.0598051 0.626593 207 96 59
1.31958 -1.1365 -7.98765 -0.612225 0.0650481 0.788004 239 100 82
1.34632 -1.11903 -7.95879 -0.87443 0.145447 0.462835 250 119 87
1.39744 -1.13827 -7.94287 -0.56876 0.500924 0.652371 242 137 79
1.40853 -1.15445 -7.93773 -0.100469 0.37416 0.921906 243 137 79
1.45677 -1.14605 -7.98377 -0.767473 0.295968 0.568672 239 146 79
1.54374 -1.14466 -8.00434 0.306045 -0.232202 0.923265 233 139 81
1.60096 -1.14547 -8.04327 0.474447 0.109031 0.873506 232 137 78
1.62901 -1.14476 -8.03442 0.224949 0.249797 0.941807 233 135 76
1.64436 -1.15445 -8.02531 0.539275 0.0100059 0.84207 236 136 75
1.64883 -1.17561 -7.98516 0.326042 0.122355 0.937404 229 127 67
-2.61815 -0.844113 -8.47875 -0.0871599 0.857917 0.506341 203 102 65
-2.567 -0.85126 -8.4784 -0.321762 0.718994 0.616049 201 99 63
-2.45977 -0.865796 -8.52877 0.098875 0.652301 0.751483 188 89 57
-2.41191 -0.846867 -8.51542 -0.376576 0.671787 0.637882 183 85 55
-2.35451 -0.849693 -8.44451 -0.517322 0.555339 0.651134 188 86 64
-2.2971 -0.864315 -8.40171 0.445194 0.469429 0.762522 194 92 72
-2.25653 -0.874923 -8.40601 0.75321 0.273618 0.598171 186 87 68
-2.25656 -0.874939 -8.40614 0.75516 0.272466 0.596235 186 87 68
-2.27102 -0.880338 -8.35272 0.64784 0.525521 0.55148 186 88 65
-2.24015 -0.877779 -8.41251 0.485327 0.6786 0.551325 183 85 64
-2.20755 -0.884133 -8.47665 0.495927 0.705975 0.505624 178 83 55
-2.1654 -0.877115 -8.50522 0.289038 0.722627 0.627907 174 80 52
-1.98089 -0.877104 -8.49164 -0.272281 0.796893 0.539282 118 46 32
-1.92836 -0.883701 -8.46422 -0.388429 0.693498 0.606781 113 44 37
-1.90483 -0.891257 -8.46578 -0.368889 0.722079 0.585254 115 46 42
-1.86655 -0.905416 -8.51118 -0.250939 0.818247 0.517205 111 45 43
-1.81568 -0.900046 -8.48883 -0.148815 0.693253 0.705163 109 45 45
-1.77586 -0.912553 -8.44409 -0.0605883 0.700311 0.711262 97 41 43
-1.73032 -0.925858 -8.40472 -0.600806 0.47217 0.645049 80 35 40
-1.68711 -0.925544 -8.38511 -0.540181 0.596417 0.59371 67 32 36
-1.56466 -0.943576 -8.08885 -0.597608 -0.162347 0.785181 63 32 34
-1.08894 -0.956299 -7.55573 0.416138 -0.698408 0.582285 72 25 17
-1.02925 -0.971296 -7.65583 0.523047 -0.378197 0.763799 60 24 16
-1.05925 -0.969449 -7.62654 0.4392 -0.561154 0.701576 65 25 17
-0.977017 -0.982278 -7.66064 0.113817 -0.402552 0.908294 67 25 17
-0.945918 -0.982045 -7.66304 0.617912 -0.285082 0.732744 80 26 20
-0.909221 -0.972343 -7.68063 0.637291 -0.431042 0.638798 74 25 17
-0.837663 -0.991123 -7.73314 0.297521 -0.478458 0.826172 76 26 17
-0.505965 -1.03362 -7.92752 0.171028 -0.468377 0.866817 92 28 14
-0.482793 -1.00213 -7.92577 0.437137 -0.372634 0.818569 105 30 16
-0.447296 -1.02327 -7.94722 0.20167 -0.429145 0.880434 103 29 17
-0.407879 -1.04169 -7.96731 0.124032 -0.480783 0.868023 90 28 15
-0.345766 -1.02509 -7.99845 0.716819 -0.0678391 0.693951 76 25 15
-0.0384975 -1.06027 -8.15577 -0.547006 -0.387597 0.741993 91 28 16
1.17324 -1.15036 -8.07367 -0.821505 0.291388 0.490125 231 122 66
1.25322 -1.16733 -8.05745 -0.870284 0.101521 0.481974 223 126 73
1.30495 -1.18099 -8.00218 -0.730898 0.281491 0.621732 209 103 61
1.33473 -1.16709 -7.96176 -0.803792 0.197234 0.561264 233 98 77
1.38373 -1.18428 -7.9249 -0.510676 0.37183 0.775211 251 119 89
1.49505 -1.19607 -7.98145 -0.179068 0.700667 0.690652 239 135 74
1.51695 -1.20223 -7.96964 -0.33382 0.760091 0.557518 240 135 74
1.55925 -1.17766 -7.99244 0.0537987 0.133367 0.989605 233 135 74
1.60225 -1.17799 -8.00325 0.530773 -0.0592011 0.845444 229 129 67
1.62757 -1.20946 -8.00397 0.444368 0.404804 0.799169 230 123 66
-2.57154 -0.889699 -8.44419 -0.278841 0.761084 0.585661 213 109 73
-2.52734 -0.866495 -8.48001 -0.164982 0.770521 0.615693 207 105 71
-2.49162 -0.877935 -8.48475 -0.359573 0.686659 0.631828 201 99 66
-2.45384 -0.899577 -8.48081 0.106571 0.65663 0.746646 203 100 75
-2.41483 -0.900431 -8.48375 0.0703455 0.603655 0.794136 199 95 74
-2.14899 -0.907769 -8.43195 0.00246152 0.867987 0.496581 171 79 51
-2.17964 -0.904006 -8.34295 0.704933 0.492905 0.510014 175 82 52
-1.9841 -0.915399 -8.44755 -0.384444 0.62152 0.68258 133 53 41
-1.93471 -0.921575 -8.39879 -0.428685 0.655749 0.621467 115 45 40
-1.8908 -0.927555 -8.37346 -0.451949 0.682181 0.574779 113 45 46
-1.81574 -0.935989 -8.45251 -0.14786 0.852828 0.500821 120 54 55
-1.77665 -0.948541 -8.41491 -0.479923 0.604972 0.63536 110 49 48
-1.66812 -0.957465 -8.37294 -0.137452 0.849377 0.509574 64 31 34
-1.09084 -0.995905 -7.59528 0.358358 -0.534316 0.765562 74 24 17
-1.04808 -1.00357 -7.65628 0.43494 -0.0891273 0.896038 64 25 18
-0.999216 -1.00499 -7.68843 0.410313 -0.395649 0.821648 64 25 17
-0.964899 -1.0149 -7.66949 0.469043 -0.224662 0.854123 69 24 17
-0.652142 -1.04549 -7.85132 -0.413834 -0.529302 0.740663 82 27 15
-0.446149 -1.06112 -7.96213 0.0880715 -0.529127 0.84396 105 30 18
-0.0350779 -1.09431 -8.17572 0.371684 0.418298 0.82878 153 69 35
1.09003 -1.17561 -8.06487 -0.2689 0.877613 0.396848 233 126 64
1.09727 -1.20261 -8.02367 -0.411904 0.846597 0.337058 237 139 76
1.2042 -1.19776 -8.10764 -0.709616 0.615894 0.342227 232 135 74
1.20576 -1.19791 -8.11121 -0.732248 0.587584 0.344323 232 135 74
1.22275 -1.18455 -8.05278 -0.877496 0.300937 0.373413 229 133 74
1.27308 -1.19191 -8.02382 -0.597715 0.161129 0.78535 222 125 72
1.23735 -1.19762 -8.00464 -0.369121 0.611885 0.699533 227 131 71
1.28423 -1.21657 -7.96152 -0.197546 0.752098 0.628748 227 126 69
1.31797 -1.20859 -7.95738 -0.454117 0.529777 0.71632 209 107 55
1.35051 -1.21623 -7.9358 -0.414152 0.323786 0.850671 214 86 50
1.36114 -1.21694 -7.92987 -0.468821 0.31116 0.826672 220 87 57
1.39488 -1.21757 -7.91428 -0.456874 0.327054 0.827225 246 103 80
1.43248 -1.21899 -7.88159 -0.735652 0.428423 0.524662 245 114 78
1.47096 -1.2183 -7.90097 -0.353461 0.70986 0.609232 238 119 69
1.45082 -1.20399 -7.89418 -0.736956 0.406969 0.539697 239 125 73
1.53227 -1.22187 -7.86905 -0.868694 0.281525 0.407571 227 126 66
-2.73751 -0.909321 -8.30995 0.722871 0.513951 0.461856 214 109 85
-2.6891 -0.894069 -8.38517 -0.161937 0.847471 0.50554 208 105 73
-2.65188 -0.909846 -8.39451 0.468 0.73436 0.491622 207 104 71
-2.52567 -0.908333 -8.42944 -0.278927 0.788844 0.547653 209 104 71
-2.49314 -0.914 -8.45765 -0.377536 0.667783 0.641508 213 108 79
-2.31601 -0.929219 -8.44006 -0.157886 0.592246 0.790137 183 88 57
-2.18 -0.934912 -8.43471 -0.13341 0.859976 0.492588 174 80 52
-2.10891 -0.947412 -8.40561 -0.398039 0.644686 0.652644 175 82 59
-2.08178 -0.960643 -8.43816 -0.393153 0.688594 0.609318 172 80 59
-2.02399 -0.946647 -8.42733 -0.484034 0.569662 0.664226 153 64 48
-2.03213 -0.94707 -8.36984 -0.570385 0.353135 0.741591 163 73 54
-1.97839 -0.960787 -8.4246 -0.526281 0.563703 0.636606 143 59 47
-1.9453 -0.967729 -8.3902 -0.600036 0.47195 0.645926 132 54 47
-1.90412 -0.982235 -8.30942 -0.445455 0.691055 0.569221 127 51 47
-1.72138 -0.970331 -8.35719 0.10627 0.86011 0.498915 100 42 43
-1.66914 -0.990586 -8.33481 0.010776 0.820436 0.571637 67 31 32
-1.63635 -0.979308 -8.2159 -0.700106 0.219768 0.679377 63 28 27
-1.09785 -1.02676 -7.60924 -0.408122 0.301085 0.861849 75 26 17
-1.06239 -1.03172 -7.6387 0.225602 -0.0527608 0.97279 70 24 17
-1.02278 -1.0355 -7.66071 -0.106046 -0.169555 0.979799 62 24 16
-0.991183 -1.04783 -7.66239 -0.00289251 -0.473859 0.880596 68 25 18
-0.959038 -1.05438 -7.69898 0.0465573 -0.515421 0.855671 77 26 20
-0.921054 -1.03478 -7.69224 0.362272 -0.457228 0.81222 77 27 20
-0.489549 -1.07063 -7.96054 0.614976 -0.403814 0.677302 99 29 15
-0.445743 -1.0998 -7.98326 0.131736 -0.502105 0.854714 105 29 18
-0.407617 -1.08063 -7.98961 0.152196 -0.498825 0.853235 90 27 14
-0.0464432 -1.12358 -8.13853 0.584706 0.365477 0.724255 232 125 69
1.2787 -1.24995 -7.89646 0.498186 0.175976 0.849025 238 133 70
1.3154 -1.23822 -7.91018 0.247522 0.646056 0.722042 223 124 63
1.36283 -1.24713 -7.91793 -0.320791 0.244386 0.915079 214 98 52
1.40532 -1.24738 -7.88755 -0.337582 0.747644 0.571898 230 87 60
1.499 -1.24859 -7.8606 -0.498778 0.559377 0.662056 237 118 70
1.53022 -1.25205 -7.82729 -0.86075 0.251258 0.442694 231 126 67
1.63823 -1.26368 -7.75262 -0.653658 0.259109 0.711051 230 131 75
1.60919 -1.28027 -7.75702 -0.815606 -0.0232949 0.578139 231 131 72
-2.6943 -0.921341 -8.31679 0.827103 0.321227 0.46121 211 107 78
-2.66105 -0.937091 -8.33277 0.848335 0.255799 0.463568 215 111 83
-2.5989 -0.941205 -8.41311 0.431811 -0.325569 0.841157 211 105 75
-2.06103 -0.99322 -8.326 -0.459986 0.665652 0.587639 168 74 54
-2.00567 -0.984056 -8.32939 -0.328398 0.758091 0.563429 162 72 55
-2.00567 -0.984056 -8.32939 -0.328398 0.758091 0.563429 162 72 55
-2.00567 -0.984056 -8.32939 -0.328398 0.758091 0.563429 162 72 55
-1.97236 -0.996228 -8.35361 -0.461276 0.627975 0.626794 151 65 53
-1.81899 -1.0174 -8.30727 0.3097 0.747508 0.587637 123 51 48
-1.75682 -1.0243 -8.2884 0.565308 0.633697 0.528067 106 44 36
-1.65554 -1.02429 -8.28329 -0.551826 0.310298 0.774082 67 28 24
-1.59595 -1.01457 -8.19347 -0.702152 0.228917 0.674225 54 26 25
-1.08069 -1.06382 -7.65173 -0.0914148 -0.459399 0.883513 76 25 17
-1.04337 -1.06776 -7.67349 0.113582 -0.192377 0.974726 65 24 17
-1.00551 -1.0665 -7.66935 -0.211823 -0.461616 0.861419 67 26 17
-1.02926 -1.06137 -7.67414 -0.18294 -0.259388 0.948288 63 25 17
-0.97888 -1.08529 -7.70465 0.0798465 -0.468204 0.880005 67 25 18
-0.938301 -1.08452 -7.71658 0.0763691 -0.532933 0.842704 77 25 19
-0.905237 -1.06753 -7.72674 0.519935 -0.436025 0.73454 71 26 17
-0.376248 -1.11943 -8.00745 0.617153 -0.400088 0.677534 80 28 16
0.0555703 -1.16849 -8.06959 0.318907 0.742884 0.588576 234 122 62
0.0881429 -1.183 -8.07228 -0.307382 0.531921 0.789035 233 121 62
1.33911 -1.27158 -7.8821 -0.0123774 0.777204 0.629127 232 123 62
1.39411 -1.27452 -7.90042 -0.838913 0.362482 0.405994 223 90 53
1.39401 -1.29492 -7.87833 -0.710006 0.0713992 0.700567 226 82 52
1.42179 -1.2763 -7.85183 -0.121371 0.812456 0.57025 230 72 57
1.49996 -1.28239 -7.83997 -0.24628 0.149717 0.957565 248 114 88
1.54623 -1.28784 -7.81355 -0.729724 0.397775 0.556127 241 125 77
1.58123 -1.2836 -7.81067 -0.789646 0.336672 0.512943 235 130 74
1.59916 -1.2911 -7.75808 -0.784517 -0.0809343 0.614803 232 127 70
1.63458 -1.30638 -7.74245 -0.78227 0.0355033 0.621927 224 99 59
1.66418 -1.29028 -7.74048 -0.687325 0.113077 0.717494 215 73 50
1.68494 -1.31175 -7.70497 -0.753326 -0.169069 0.635544 240 82 69
-2.70412 -0.950352 -8.27048 0.803207 0.308283 0.509726 213 108 84
-2.67364 -0.967864 -8.29405 0.857587 0.226905 0.461582 211 107 77
-2.63306 -0.956726 -8.36528 0.861976 0.198288 0.466561 213 108 77
-2.55828 -0.963865 -8.39753 -0.526495 -0.0789692 0.846503 207 102 68
-2.09595 -1.02789 -8.26347 -0.426713 0.699356 0.573427 175 79 60
-2.05169 -1.03488 -8.25885 -0.490056 0.633691 0.598566 172 76 60
-1.99936 -1.01897 -8.25844 -0.376784 0.714226 0.589842 171 80 63
-1.94592 -1.02487 -8.32212 -0.536684 0.536287 0.651434 152 67 57
-1.95202 -1.04309 -8.2779 -0.125588 0.690118 0.712717 166 78 68
-1.89982 -1.02792 -8.30094 -0.270617 0.341994 0.899892 150 67 62
-1.86751 -1.03162 -8.31644 0.227452 0.689417 0.687728 136 57 53
-1.79622 -1.04438 -8.25757 -0.156601 0.739147 0.655086 111 45 35
-1.75991 -1.06129 -8.26191 -0.239383 0.839022 0.488608 103 40 30
-1.6375 -1.05723 -8.2462 -0.356416 0.40519 0.841896 85 39 40
-1.59695 -1.05821 -8.21919 -0.578182 0.445739 0.683391 77 35 36
-1.57832 -1.06178 -8.20844 0.251777 -0.18068 0.95077 71 31 33
-1.50823 -1.06955 -8.19352 -0.416375 0.713685 0.563281 59 26 25
-1.07918 -1.10225 -7.67294 -0.0585644 -0.582489 0.810726 75 26 16
-1.04189 -1.08752 -7.68014 0.0285032 -0.403063 0.914728 64 24 16
-1.0263 -1.09851 -7.68539 -0.100715 -0.546665 0.831272 63 25 16
-0.964487 -1.11843 -7.72558 0.336562 -0.416651 0.844469 70 25 17
-0.895281 -1.10007 -7.72057 -0.0132188 -0.553181 0.832956 67 24 14
-0.338645 -1.18223 -8.06901 0.34694 0.6207 0.70311 151 67 39
-0.299666 -1.16912 -8.07789 0.161322 0.694892 0.700786 139 59 31
0.0105953 -1.20042 -8.05703 -0.00337603 0.872346 0.488877 232 119 60
0.0506751 -1.20799 -8.05219 -0.37436 0.717093 0.587905 230 115 58
0.0881622 -1.2169 -8.04155 -0.44869 0.595263 0.666588 228 113 59
0.122406 -1.19182 -8.06672 -0.501119 0.49972 0.706513 234 120 63
0.123741 -1.20656 -8.05222 -0.714347 0.460529 0.526898 230 116 60
1.35487 -1.32007 -7.85156 -0.292463 -0.229476 0.928335 240 93 71
1.49537 -1.34029 -7.81565 -0.480369 0.146868 0.864682 218 88 55
1.51413 -1.31036 -7.81857 -0.375755 0.078809 0.923362 245 103 85
1.52907 -1.34048 -7.80302 -0.481753 0.401396 0.778971 226 88 64
1.55993 -1.32507 -7.81594 0.311574 0.668009 0.675786 249 108 84
1.61838 -1.33948 -7.75747 -0.763954 -0.304193 0.569071 244 100 78
1.6517 -1.34006 -7.7452 -0.422556 0.11018 0.899615 226 71 59
1.73471 -1.35319 -7.73721 0.411394 -0.421135 0.808332 244 121 73
1.69248 -1.35033 -7.72014 0.0665673 -0.336092 0.939474 249 97 81
1.73882 -1.35136 -7.73951 0.422432 -0.401272 0.812731 243 122 72
-2.69191 -1.0006 -8.27419 0.841085 0.287345 0.458266 208 106 66
-2.51197 -0.998669 -8.32718 -0.238403 0.792664 0.561113 207 107 62
-1.99633 -1.05959 -8.28924 -0.340771 0.779396 0.525753 174 81 69
-1.9963 -1.0596 -8.29005 -0.348133 0.774087 0.528766 174 81 69
-1.9963 -1.0596 -8.29005 -0.348133 0.774087 0.528766 174 81 69
-1.90869 -1.05536 -8.24527 -0.136552 0.629272 0.765095 155 68 59
-1.876 -1.05884 -8.25842 -0.235868 0.64825 0.723974 138 56 46
-1.83037 -1.06808 -8.21869 -0.299706 0.671769 0.677423 120 48 33
-1.79371 -1.08002 -8.21223 -0.196598 0.734271 0.649765 113 42 31
-1.75896 -1.09524 -8.21962 -0.228436 0.784766 0.576159 112 44 38
-1.71294 -1.07032 -8.24369 -0.0819128 0.876456 0.474463 99 36 28
-1.63402 -1.10129 -8.2228 -0.563874 0.478462 0.673142 121 56 59
-1.59435 -1.10285 -8.19937 -0.469501 0.480393 0.740805 97 44 46
-1.59074 -1.1036 -8.20741 -0.579478 0.484808 0.655107 88 41 42
-1.55155 -1.09177 -8.18856 -0.0633543 0.735117 0.674974 68 31 31
-1.0748 -1.13855 -7.68428 0.381864 -0.584329 0.716058 74 25 16
-1.02676 -1.13779 -7.715 0.267233 -0.553435 0.788858 63 25 15
-0.984351 -1.14815 -7.71767 0.289481 -0.425465 0.857427 66 25 16
-0.94899 -1.15123 -7.74562 0.354787 -0.33983 0.871 77 24 16
-0.90064 -1.14273 -7.76385 0.609105 -0.38551 0.69309 68 25 15
-0.369927 -1.18373 -8.00587 0.406653 0.538363 0.738105 153 65 39
-0.338638 -1.21496 -8.04004 0.288709 0.635928 0.715712 232 124 64
0.00955276 -1.23131 -8.0055 -0.234766 0.858374 0.456157 239 124 62
0.0510476 -1.23979 -8.0114 -0.350198 0.669505 0.655076 237 121 64
0.0851876 -1.23699 -8.01748 -0.536687 0.596412 0.596875 233 117 62
0.122113 -1.24632 -8.01985 -0.649366 0.582709 0.488645 229 117 60
1.34009 -1.35421 -7.87472 0.21521 -0.686011 0.695035 242 99 85
1.37208 -1.35074 -7.82928 -0.467492 -0.12098 0.87568 230 93 70
1.42507 -1.33879 -7.84466 -0.411511 -0.397401 0.820202 234 93 64
1.40757 -1.36809 -7.83439 -0.511859 -0.111576 0.851793 225 108 63
1.46319 -1.34023 -7.83318 -0.442775 -0.293384 0.847276 225 95 56
1.47801 -1.37313 -7.82766 -0.828412 0.313106 0.464433 237 132 69
1.50945 -1.3722 -7.81058 -0.699623 0.062693 0.711757 228 118 65
1.53889 -1.37172 -7.78459 -0.447667 0.385638 0.80677 223 105 61
1.60467 -1.38514 -7.75865 -0.195055 0.198794 0.960434 222 84 54
1.63827 -1.38416 -7.74684 -0.444095 0.313123 0.839484 224 80 58
1.67609 -1.38222 -7.73024 -0.221363 -0.0566226 0.973546 241 87 78
1.71283 -1.38414 -7.73225 0.0651286 -0.217081 0.973979 248 104 79
1.75155 -1.38387 -7.73344 0.252867 -0.459667 0.851331 247 114 78
1.83625 -1.40306 -7.77859 0.426383 0.285969 0.858149 246 111 75
1.89448 -1.40872 -7.80347 -0.0439393 0.831684 0.553507 248 113 80
-1.90652 -1.0895 -8.20911 -0.296188 0.312286 0.902635 160 70 56
-1.90447 -1.11029 -8.233 0.0566636 0.685156 0.726189 163 73 57
-1.86926 -1.09183 -8.20316 -0.0120933 0.619184 0.785152 144 60 45
-1.83116 -1.10885 -8.20171 -0.0327651 0.846029 0.532129 135 55 46
-1.79845 -1.11672 -8.18998 -0.185 0.721334 0.667422 130 54 49
-1.71345 -1.10442 -8.19946 -0.355437 0.729754 0.584059 107 41 36
-1.72073 -1.10904 -8.19616 -0.12602 0.777421 0.616227 108 41 37
-1.6784 -1.11516 -8.21017 -0.225551 0.73779 0.636233 111 45 43
-1.61987 -1.13945 -8.15921 -0.271926 0.840286 0.469016 108 43 41
-1.55449 -1.12906 -8.17694 -0.535189 0.627034 0.56604 68 35 34
-1.5141 -1.13105 -8.10088 -0.507268 0.662934 0.550635 60 31 31
-1.06781 -1.17637 -7.72164 0.491802 -0.496408 0.715339 72 25 15
-1.09274 -1.17227 -7.7282 0.339724 -0.453066 0.824208 76 26 15
-1.0265 -1.17654 -7.73891 0.275964 -0.522604 0.806678 64 24 15
-0.974386 -1.18461 -7.75489 0.15134 -0.517452 0.842223 71 25 16
-0.954002 -1.18701 -7.76866 0.476456 -0.388014 0.788945 75 24 15
-0.918347 -1.18121 -7.78995 0.560528 -0.463423 0.686329 79 27 16
-0.906262 -1.17509 -7.79317 0.567961 -0.42833 0.702818 72 25 16
-0.639318 -1.21862 -7.80999 0.730857 -0.105804 0.67428 85 26 12
-0.479616 -1.22309 -7.98372 0.486321 -0.0360048 0.873038 176 80 45
-0.43545 -1.21394 -7.96037 0.596319 0.162117 0.786207 202 103 59
-0.37842 -1.22573 -8.01933 0.296586 0.593977 0.747816 226 121 61
0.0082506 -1.26603 -7.98414 -0.347563 0.765093 0.542063 243 127 61
0.0510997 -1.2707 -7.96655 -0.65499 0.567591 0.498828 231 116 56
0.0849006 -1.27493 -7.98013 -0.57623 0.642249 0.505446 231 114 57
1.37992 -1.38836 -7.82492 -0.712679 -0.168429 0.68097 229 122 66
1.50965 -1.40113 -7.76954 -0.556265 0.660769 0.503938 230 126 63
1.54486 -1.40142 -7.75536 -0.186606 0.571703 0.798958 231 125 65
1.56541 -1.38448 -7.75556 -0.145532 0.54543 0.825425 226 105 59
1.58831 -1.41489 -7.7608 -0.250662 0.267773 0.930304 225 119 64
1.62075 -1.41467 -7.74856 -0.153377 0.300635 0.941326 220 109 59
1.65383 -1.4128 -7.73336 -0.375878 0.47601 0.795066 212 87 47
1.69065 -1.41585 -7.7327 -0.163592 -0.087741 0.982619 213 81 49
1.72714 -1.41667 -7.73094 0.2567 0.561453 0.786687 224 87 59
1.75918 -1.4045 -7.74455 0.388351 0.400305 0.830023 242 98 72
1.76686 -1.41908 -7.74261 0.325526 0.216256 0.920471 232 88 63
1.79714 -1.40339 -7.75709 0.497938 0.187151 0.846778 247 105 75
1.85782 -1.43791 -7.76395 -0.0197956 0.213738 0.97669 229 100 64
1.89371 -1.43795 -7.76373 0.0431594 0.793338 0.607249 235 105 69
1.92735 -1.42366 -7.76919 0.147871 0.788389 0.597141 245 109 77
-2.2461 -1.10025 -8.2188 0.666049 0.56183 0.490638 200 96 77
-1.95899 -1.13894 -8.20549 0.282484 0.705797 0.649657 179 85 64
-1.90267 -1.14532 -8.23658 0.247144 0.189203 0.950328 169 77 60
-1.86726 -1.12684 -8.2127 0.0804264 0.721098 0.688149 155 68 56
-1.84949 -1.1511 -8.13661 -0.0362483 0.761857 0.64673 160 71 50
-1.83536 -1.14274 -8.16559 -0.0927131 0.769961 0.63132 154 67 52
-1.75913 -1.12967 -8.17819 -0.160409 0.677895 0.717445 117 45 40
-1.72184 -1.14387 -8.16782 -0.539999 0.52392 0.658718 105 38 33
-1.66854 -1.1603 -8.16064 -0.420649 0.700935 0.575973 111 46 46
-1.55891 -1.1723 -8.12654 -0.595885 0.531487 0.602032 92 39 35
-1.51583 -1.17054 -8.07971 -0.374092 0.776535 0.506999 68 31 31
-1.05235 -1.20943 -7.74031 0.321804 -0.468268 0.822902 70 25 14
-1.00306 -1.21121 -7.78187 0.301149 -0.437021 0.847539 64 24 15
-0.939025 -1.22122 -7.79816 0.585147 -0.326729 0.742194 77 25 15
-0.67661 -1.2395 -7.80325 0.680579 -0.138686 0.719429 96 32 17
-0.548308 -1.24531 -7.92645 0.385593 -0.521753 0.760981 187 88 49
-0.476053 -1.25999 -7.98476 0.444207 -0.139142 0.885054 229 129 67
-0.459018 -1.25326 -7.97714 0.716433 0.184503 0.672816 228 127 65
-0.275372 -1.27505 -7.99667 -0.335619 0.634067 0.696648 241 127 61
-0.215411 -1.26549 -7.93914 -0.33987 0.850618 0.40117 245 129 65
-0.167757 -1.27726 -7.98951 -0.067974 0.887798 0.455186 246 131 66
-0.154036 -1.2977 -7.96944 0.110023 0.83116 0.54504 242 126 59
-0.116484 -1.28931 -7.96971 0.186119 0.82873 0.527794 243 127 60
-0.0967585 -1.29512 -7.93518 0.0854044 0.470931 0.878026 242 124 62
-0.0411221 -1.2989 -7.95084 -0.465787 0.670963 0.576932 240 122 60
0.0505599 -1.30919 -7.9338 -0.201293 0.583429 0.786823 233 120 54
0.0842279 -1.32176 -7.92017 -0.315332 0.586762 0.745839 230 119 56
0.351908 -1.31925 -7.94406 -0.699628 0.582041 0.414425 226 121 64
0.390713 -1.34766 -7.88339 -0.479194 0.741488 0.469647 227 122 64
1.34765 -1.40277 -7.77364 -0.83109 -0.153396 0.534565 238 128 65
1.49253 -1.41193 -7.78371 -0.763324 0.574294 0.295845 226 122 59
1.55741 -1.43434 -7.75814 -0.279321 0.391626 0.876703 225 118 61
1.60038 -1.43298 -7.74163 -0.516425 0.47632 0.711635 223 120 63
1.70433 -1.44164 -7.70509 0.184092 0.765211 0.616897 221 109 58
1.76758 -1.44004 -7.73586 0.403032 0.406875 0.819767 220 92 54
1.82154 -1.4433 -7.76734 0.495814 -0.0598303 0.866366 222 92 56
1.85958 -1.46579 -7.72764 -0.0238232 0.783545 0.620878 212 102 54
-2.50736 -1.09876 -8.19488 0.169163 0.813056 0.557067 218 114 64
-2.24485 -1.13325 -8.17731 0.290715 0.814033 0.502827 201 97 83
-2.24539 -1.12799 -8.17961 0.373085 0.794725 0.478769 200 95 81
-2.18453 -1.1538 -8.13106 0.266675 0.766075 0.584819 191 93 80
-1.99321 -1.14419 -8.1692 0.540353 0.675841 0.501257 180 85 65
-1.97536 -1.17404 -8.17016 0.0620469 0.547815 0.834296 179 83 58
-1.95685 -1.16986 -8.16591 0.34816 0.60551 0.715641 177 81 56
-1.92517 -1.16367 -8.1693 0.385212 0.675727 0.628494 172 78 54
-1.88994 -1.17119 -8.1852 -0.0198071 0.740257 0.672032 168 75 50
-1.84867 -1.18451 -8.11191 -0.0640813 0.883793 0.463469 161 68 40
-1.80617 -1.16595 -8.10596 -0.078737 0.88213 0.464378 146 60 35
-1.70069 -1.18609 -8.12973 -0.393293 0.587668 0.707083 121 49 49
-1.46606 -1.20026 -8.0437 -0.667506 0.408156 0.622772 56 27 26
-1.09616 -1.21129 -7.73512 0.149211 -0.573938 0.80519 82 27 16
-1.02589 -1.24427 -7.78962 0.0162921 -0.423646 0.905681 67 25 15
-0.982453 -1.24452 -7.79552 0.159181 -0.559484 0.813412 67 24 16
-0.75743 -1.27429 -7.79384 0.674583 -0.247995 0.695296 110 40 17
-0.711574 -1.25252 -7.77956 0.647671 -0.215589 0.730783 101 31 13
-0.643197 -1.25818 -7.79122 0.691375 0.0130719 0.722378 191 91 50
-0.532103 -1.29326 -7.97633 0.417605 0.707963 0.569556 233 131 65
-0.27565 -1.30759 -7.97256 0.309855 0.612858 0.726908 242 123 61
-0.239646 -1.29597 -7.97833 0.103713 0.834426 0.541273 246 127 66
-0.221133 -1.30561 -7.94246 -0.442228 0.677321 0.587937 245 128 66
-0.182732 -1.31515 -7.95049 -0.602525 0.624574 0.496861 235 119 57
-0.111884 -1.3185 -7.94185 0.291714 0.667323 0.685261 236 118 56
-0.0782245 -1.30932 -7.92914 0.183031 0.690313 0.699977 237 119 59
-0.0181406 -1.33681 -7.90491 0.0427095 0.74463 0.66611 237 122 59
0.0169874 -1.32848 -7.9226 0.37493 0.609657 0.698388 243 127 61
0.268364 -1.36383 -7.87896 0.0588577 0.868287 0.492558 233 124 60
0.330725 -1.36871 -7.87177 -0.0417046 0.887425 0.459061 238 133 68
0.309465 -1.373 -7.84063 0.179815 0.820933 0.541974 239 133 67
0.352983 -1.35656 -7.88759 -0.521207 0.709777 0.473877 231 126 64
0.380173 -1.37799 -7.83494 -0.493285 0.508236 0.70595 234 130 66
0.411757 -1.35036 -7.83181 -0.582253 0.0704237 0.809952 228 123 66
1.83511 -1.49272 -7.64415 -0.0262231 0.873799 0.48558 224 111 61
-2.60427 -1.14558 -8.1423 -0.213075 0.824278 0.524561 216 111 67
-2.55148 -1.13317 -8.15498 -0.348009 0.709008 0.61335 210 105 57
-2.50707 -1.13058 -8.1477 0.240592 0.694735 0.677834 212 105 57
-2.47835 -1.1573 -8.13501 -0.381536 0.675618 0.630849 209 101 55
-2.19378 -1.15536 -8.15137 0.402698 0.77969 0.479497 193 93 82
-2.04614 -1.19546 -8.12796 0.744241 0.432101 0.509308 186 89 65
-2.0069 -1.18817 -8.14911 0.353361 0.66129 0.661689 189 91 65
-1.8964 -1.19828 -8.05547 0.166409 0.864134 0.474954 182 83 52
-1.85699 -1.21398 -8.05363 0.0743332 0.823501 0.562424 176 79 51
-1.8135 -1.20065 -8.07255 0.0721442 0.782013 0.619072 156 63 41
-1.76959 -1.2178 -8.05109 -0.031598 0.730666 0.682003 146 55 45
-1.73696 -1.20544 -8.09758 -0.184775 0.719417 0.66955 135 52 48
-1.70157 -1.21936 -8.09847 -0.0825521 0.838402 0.538765 137 59 62
-1.60289 -1.21555 -8.08388 -0.284793 0.838794 0.464024 109 46 41
-1.60289 -1.21555 -8.08388 -0.284793 0.838794 0.464024 109 46 41
-1.60289 -1.21555 -8.08388 -0.284793 0.838794 0.464024 109 46 41
-1.55742 -1.21493 -8.06466 -0.228292 0.822659 0.520687 105 43 36
-1.51062 -1.22547 -8.06086 -0.127185 0.731933 0.669402 84 34 29
-1.46926 -1.23741 -8.03767 -0.61507 0.376633 0.692702 65 28 25
-1.43005 -1.23468 -8.02385 -0.651453 0.456413 0.606049 58 27 26
-1.05093 -1.25877 -7.77406 -0.751197 0.105435 0.651604 72 25 14
-0.968042 -1.27424 -7.75094 -0.484758 -0.391066 0.782354 70 25 14
-0.744216 -1.29328 -7.80621 0.6962 0.227712 0.680774 180 83 44
-0.686415 -1.28417 -7.80633 0.426944 -0.643186 0.635634 209 105 54
-0.634461 -1.29561 -7.8881 0.437741 -0.631784 0.639713 238 132 63
-0.634461 -1.29561 -7.8881 0.437741 -0.631784 0.639713 238 132 63
-0.486748 -1.32328 -7.92317 -0.661138 -0.359604 0.658469 239 131 66
-0.274851 -1.33814 -7.93723 0.269874 0.699942 0.661248 233 117 56
-0.221792 -1.34233 -7.90907 -0.624813 0.638183 0.449813 227 113 55
-0.187989 -1.34705 -7.91181 -0.731442 0.479849 0.484496 228 114 55
-0.0566501 -1.35037 -7.88689 -0.0805916 0.708741 0.700851 240 126 62
-0.0907856 -1.36354 -7.85611 -0.353408 0.797156 0.489535 239 126 63
-0.0181582 -1.36656 -7.872 0.0976269 0.793777 0.600322 237 123 58
0.068768 -1.36263 -7.8832 -0.662907 0.554939 0.50259 235 125 59
0.13246 -1.364 -7.85947 -0.596232 0.692885 0.405484 227 116 58
0.190638 -1.36448 -7.87725 -0.322905 0.863528 0.387366 226 117 55
0.227615 -1.37968 -7.86148 -0.0389787 0.860986 0.507133 231 122 58
0.268476 -1.39143 -7.8369 -0.0494699 0.796045 0.603212 236 129 65
0.330607 -1.39628 -7.82827 -0.0767963 0.585021 0.807374 242 138 67
0.362467 -1.41011 -7.81059 -0.0120746 0.788753 0.614591 242 136 67
0.411661 -1.38765 -7.82453 -0.145468 0.535074 0.832187 231 125 66
-2.68643 -1.16284 -8.13378 0.356787 0.715364 0.600798 222 117 69
-2.54911 -1.17661 -8.11824 -0.433824 0.51158 0.741676 212 106 61
-2.51107 -1.18773 -8.0968 -0.421057 0.61612 0.665663 212 105 59
-2.46787 -1.17922 -8.17183 -0.418877 0.628735 0.65516 209 102 56
-1.98692 -1.21105 -8.0722 0.365052 0.796206 0.482486 185 87 56
-1.94037 -1.23191 -8.0567 -0.430608 0.670815 0.603808 177 80 50
-1.9188 -1.23857 -8.03757 -0.485818 0.592366 0.642716 175 78 50
-1.8857 -1.21407 -7.73398 -0.145458 0.867038 0.476537 183 86 60
-1.81471 -1.23206 -8.03783 0.0478874 0.691873 0.720429 175 76 59
-1.77573 -1.24974 -8.02399 -0.0765871 0.610622 0.78821 170 74 65
-1.73431 -1.23645 -8.05339 -0.185165 0.726708 0.66152 149 65 64
-1.69556 -1.2489 -8.04058 -0.306836 0.765103 0.5661 134 57 57
-1.58945 -1.25902 -8.02137 -0.404357 0.743207 0.533046 103 39 31
-1.51313 -1.26156 -8.04731 -0.634404 0.223858 0.739878 96 36 32
-1.45655 -1.27799 -8.0105 -0.45979 0.411413 0.786977 87 34 30
-1.40743 -1.27375 -7.98339 -0.564164 0.52568 0.636695 68 27 27
-1.41876 -1.27897 -7.99332 -0.554855 0.543546 0.629835 70 28 27
-0.905906 -1.32161 -7.7528 0.15086 -0.669593 0.727246 95 33 13
-0.0929271 -1.39882 -7.83711 -0.250706 0.794795 0.552672 239 128 65
-0.0538414 -1.37707 -7.8406 -0.656035 0.560738 0.505164 236 125 60
-0.0180341 -1.39473 -7.83228 -0.0213322 0.889365 0.456701 235 125 59
0.0288279 -1.41501 -7.84895 -0.166792 0.597088 0.784644 232 125 61
0.0232988 -1.39929 -7.87129 -0.558994 0.662597 0.498488 240 131 63
0.0195583 -1.38163 -7.84181 0.0991292 0.724871 0.681715 239 128 60
0.0605098 -1.39544 -7.84986 -0.0268704 0.774922 0.631485 233 124 60
0.0965262 -1.40828 -7.81973 -0.747674 0.37579 0.547508 233 127 64
0.0918288 -1.409 -7.81926 -0.768967 0.279006 0.575192 234 128 65
0.171724 -1.40902 -7.83422 -0.224733 0.891516 0.393312 227 121 63
0.147558 -1.39969 -7.836 -0.470441 0.798451 0.375714 224 116 59
0.189368 -1.41187 -7.8111 -0.171877 0.838758 0.516666 236 131 65
0.23068 -1.40439 -7.82458 0.276558 0.777669 0.564577 242 137 68
0.268379 -1.4213 -7.80829 0.10074 0.741185 0.663698 238 133 63
0.294565 -1.41286 -7.81095 0.416614 0.575052 0.704094 238 133 65
0.324899 -1.42635 -7.78885 -0.149021 0.843454 0.516118 242 135 69
0.317116 -1.43688 -7.77628 -0.235945 0.632624 0.737643 237 130 67
0.380083 -1.41378 -7.81957 -0.729463 0.482705 0.484644 238 132 65
-2.68967 -1.19868 -8.10886 0.122528 0.684346 0.718789 212 104 63
-2.64315 -1.18273 -8.11534 -0.47313 0.60796 0.6376 215 109 66
-2.59415 -1.19572 -8.08506 -0.401278 0.700131 0.590587 214 108 66
-2.57799 -1.20491 -8.08604 -0.411707 0.690813 0.59437 213 106 66
-2.52761 -1.21287 -8.02901 -0.46616 0.530551 0.707962 217 108 69
-2.4774 -1.19964 -8.09293 -0.404659 0.648221 0.645028 216 107 63
-2.45466 -1.21556 -8.10399 -0.276355 0.791193 0.545565 218 109 69
-2.4126 -1.22535 -8.08986 0.522276 0.716004 0.463212 225 116 82
-2.20633 -1.24243 -8.0525 0.174212 0.869041 0.463054 202 98 74
-2.02628 -1.2511 -8.03493 -0.472719 0.599401 0.645953 181 85 59
-1.93721 -1.24565 -7.94006 -0.141329 0.802339 0.579894 182 85 58
-1.93351 -1.26021 -7.94704 -0.281956 0.831925 0.477913 184 87 66
-1.87969 -1.26751 -7.95737 -0.26081 0.83381 0.486558 194 89 73
-1.81261 -1.26839 -8.0151 -0.272504 0.647367 0.711798 184 83 71
-1.7356 -1.26243 -7.99567 -0.348909 0.576895 0.738549 156 68 59
-1.6811 -1.2798 -8.02336 -0.2025 0.874029 0.441664 132 53 44
-1.63606 -1.29135 -7.98963 -0.0973538 0.804089 0.586484 126 52 41
-1.6051 -1.28462 -7.941 -0.608304 0.392462 0.689884 115 45 36
-1.57838 -1.29501 -7.95746 -0.551429 0.522123 0.650625 117 43 37
-1.54963 -1.3013 -7.97018 -0.411028 0.731841 0.543566 111 41 34
-1.52757 -1.30638 -8.02197 -0.59734 0.552095 0.581701 105 39 32
-1.49106 -1.29871 -8.02431 -0.645291 0.439904 0.624567 104 38 30
-1.43694 -1.30801 -7.95225 -0.562077 0.526658 0.637731 98 39 37
-1.40606 -1.31564 -7.95507 -0.488228 0.65752 0.573847 80 34 38
-1.0179 -1.34373 -7.78462 0.318586 -0.584856 0.745953 71 25 16
-0.956007 -1.34885 -7.77296 0.213868 -0.713174 0.667566 100 37 20
-0.149148 -1.42869 -7.78595 -0.71842 -0.09194 0.689507 229 117 56
-0.10793 -1.42931 -7.81649 0.179937 0.839798 0.512212 242 132 66
-0.0689856 -1.41332 -7.8315 -0.040048 0.759421 0.649366 238 129 65
-0.0194347 -1.42505 -7.8037 -0.556272 0.670809 0.490486 238 131 65
0.0272468 -1.44423 -7.82691 0.0313093 0.501987 0.864308 232 126 64
0.0585109 -1.42632 -7.81945 -0.0569178 0.74324 0.6666 235 129 65
0.114759 -1.44464 -7.80679 -0.56482 0.72621 0.391915 233 129 67
0.090652 -1.438 -7.78283 0.110283 0.858614 0.500619 238 133 69
0.156655 -1.44342 -7.77395 -0.405899 0.700352 0.587156 224 122 61
0.195666 -1.44627 -7.75091 -0.0390066 0.700125 0.712954 235 130 65
0.279723 -1.44518 -7.767 -0.148599 0.86901 0.471953 229 125 60
0.310791 -1.46611 -7.73143 0.00427454 0.867624 0.497202 232 123 62
0.349245 -1.44643 -7.75146 -0.077384 0.826742 0.557234 235 126 63
0.326746 -1.4536 -7.75038 0.109492 0.787506 0.606503 232 124 63
-2.72729 -1.20582 -8.08869 0.384943 0.626073 0.678123 210 105 62
-2.68792 -1.22425 -8.07213 0.126599 0.607556 0.784122 210 104 68
-2.65135 -1.21028 -8.08832 0.148991 0.804115 0.5755 209 103 64
-2.59247 -1.23027 -8.04331 0.176754 0.792529 0.583657 212 105 69
-2.51122 -1.23312 -8.06322 -0.397258 0.656915 0.640819 220 110 76
-2.51066 -1.23288 -8.06177 -0.405038 0.646011 0.647005 220 110 76
-2.51066 -1.23288 -8.06177 -0.405038 0.646011 0.647005 220 110 76
-2.24475 -1.25034 -8.02547 0.182106 0.868346 0.461317 220 115 86
-2.20657 -1.2723 -8.00164 0.247967 0.717992 0.650385 209 105 78
-2.1185 -1.28231 -8.007 -0.411816 0.681219 0.605268 192 91 66
-2.02256 -1.27414 -7.81186 -0.402295 0.740769 0.537977 191 89 69
-1.92197 -1.27147 -7.99105 -0.106032 0.593617 0.797731 187 88 71
-1.9338 -1.27726 -7.9044 -0.308955 0.796994 0.518986 192 90 75
-1.92569 -1.27125 -7.87116 -0.0372051 0.819223 0.572266 192 89 75
-1.81027 -1.30212 -7.97528 -0.106182 0.888031 0.447354 178 82 69
-1.74304 -1.30389 -7.99271 -0.182271 0.831988 0.523997 162 70 56
-1.67578 -1.31854 -7.95901 0.0457165 0.888681 0.456242 156 67 55
-1.63762 -1.3283 -7.94359 -0.408214 0.541033 0.735286 153 64 50
-1.48291 -1.34319 -7.99831 -0.570597 0.600597 0.560092 113 44 44
-1.44103 -1.3443 -7.9584 -0.557566 0.622316 0.549403 110 45 50
-1.39281 -1.34473 -7.8957 -0.0904443 0.853385 0.513375 107 49 53
-1.16385 -1.3448 -7.73478 -0.624502 0.418419 0.659486 77 26 16
-1.00546 -1.37513 -7.7678 0.12356 -0.514103 0.848782 137 59 30
-0.245449 -1.44051 -7.78225 0.0250974 0.559445 0.828487 239 128 64
-0.20875 -1.45475 -7.7789 -0.123308 0.581761 0.803958 240 129 62
-0.176602 -1.43935 -7.7898 0.0275193 0.505465 0.862408 229 118 55
-0.1454 -1.46001 -7.77175 0.263192 0.64916 0.713667 237 127 62
-0.109292 -1.45229 -7.78075 0.295767 0.74761 0.594644 238 129 62
-0.0697077 -1.44455 -7.80765 -0.0384717 0.815018 0.578157 240 134 66
-0.0281205 -1.46979 -7.78576 -0.0297913 0.890567 0.453875 234 131 64
0.019899 -1.47471 -7.78372 0.341275 0.722597 0.601153 229 126 64
0.0449557 -1.45233 -7.74247 0.576962 0.235574 0.782061 231 128 65
0.0846924 -1.47282 -7.74652 -0.0680023 0.486759 0.870885 242 138 72
0.119756 -1.4732 -7.73584 -0.405869 0.263225 0.875205 234 130 67
0.152542 -1.47262 -7.72512 -0.0838885 0.376565 0.922584 226 121 58
0.222758 -1.46178 -7.7145 0.220928 0.812973 0.538763 237 131 64
0.278699 -1.4708 -7.71637 -0.12419 0.872529 0.472514 234 125 64
-2.84209 -1.24255 -7.99683 0.65564 0.620713 0.429943 203 98 61
-2.80434 -1.2423 -8.00555 0.583185 0.5885 0.559966 202 97 55
-2.74495 -1.24096 -8.05587 0.0159827 0.856172 0.516444 216 107 72
-2.64407 -1.24077 -8.04432 0.272832 0.757253 0.593405 213 108 75
-2.43613 -1.26116 -8.00935 0.446652 0.564524 0.694129 215 108 74
-2.41645 -1.27807 -7.9678 0.237098 0.0709193 0.968894 213 108 72
-2.39794 -1.28558 -8.01002 0.0973067 0.84578 0.524583 219 111 78
-2.34379 -1.2798 -8.02883 -0.161437 0.804643 0.571391 223 115 82
-2.30078 -1.29439 -7.97158 -0.0281053 0.710744 0.702889 221 113 83
-2.2447 -1.28131 -7.99663 0.0390844 0.889323 0.455606 222 116 87
-2.17715 -1.28059 -8.00691 0.266727 0.771669 0.577393 201 97 71
-2.12126 -1.29796 -7.96406 -0.415346 0.725447 0.548831 203 100 73
-2.06842 -1.30222 -7.93013 -0.244407 0.838784 0.486524 202 97 77
-2.00331 -1.30358 -7.91737 -0.0735949 0.775653 0.626854 195 93 75
-1.82384 -1.32824 -7.82927 -0.14709 0.885417 0.440909 196 96 85
-1.82384 -1.32824 -7.82927 -0.14709 0.885417 0.440909 190 92 79
-1.79444 -1.32544 -7.94353 -0.0837097 0.89137 0.445479 184 88 76
-1.74366 -1.33434 -7.93511 0.0782739 0.886442 0.456174 180 84 74
-1.60659 -1.33396 -7.94638 -0.555441 0.444037 0.703076 144 60 48
-1.63506 -1.35895 -7.90876 -0.385888 0.754457 0.530928 174 78 59
-1.57273 -1.33688 -7.93915 -0.567088 0.432324 0.701076 134 53 45
-1.53207 -1.34544 -7.91568 -0.248762 0.729019 0.637691 132 53 50
-1.49667 -1.35778 -7.91268 -0.50404 0.625084 0.595998 131 54 55
-1.45372 -1.36031 -7.86123 -0.501812 0.632579 0.589939 132 56 63
-1.41345 -1.36451 -7.81851 -0.483575 0.601786 0.635617 133 59 65
-1.39264 -1.3499 -7.89051 -0.166707 0.841615 0.513705 111 50 55
-1.38759 -1.3785 -7.83871 -0.243271 0.672505 0.698968 114 44 43
-1.35966 -1.36397 -7.90825 0.0304131 0.790807 0.611309 80 30 31
-1.31722 -1.38014 -7.89976 -0.385976 0.776789 0.497616 65 25 21
-1.21747 -1.38287 -7.7247 -0.619555 0.422462 0.661572 70 26 17
-1.19599 -1.38988 -7.74502 -0.6235 0.41812 0.660623 76 27 18
-1.19599 -1.38988 -7.74502 -0.6235 0.41812 0.660623 76 27 18
-1.15754 -1.38559 -7.71848 -0.495681 0.657559 0.567377 86 27 15
-0.277744 -1.45584 -7.77264 -0.113808 0.817223 0.564973 239 128 61
-0.24178 -1.47322 -7.77304 -0.584773 0.689677 0.427067 227 117 53
-0.213067 -1.45615 -7.77693 -0.104835 0.6254 0.77323 240 129 62
-0.178853 -1.46912 -7.75402 -0.0496979 0.706104 0.706362 236 126 61
-0.192771 -1.47409 -7.76911 -0.103798 0.736446 0.668486 234 124 59
-0.145506 -1.49123 -7.74365 0.369174 0.737097 0.566037 236 128 63
-0.109863 -1.48168 -7.75084 0.373951 0.638808 0.672373 233 126 61
-0.0696885 -1.47244 -7.76799 0.182294 0.788555 0.587325 232 127 61
0.0949261 -1.50292 -7.72158 -0.109722 0.623926 0.773743 237 132 70
0.132046 -1.50047 -7.70938 -0.320533 0.602261 0.731123 236 130 68
0.166639 -1.50033 -7.7045 0.0540969 0.662869 0.746778 234 127 64
0.199441 -1.51617 -7.68562 0.142524 0.570502 0.808835 239 131 68
0.232033 -1.50058 -7.68622 -0.535569 0.607921 0.586172 235 127 65
-2.84854 -1.26935 -7.95922 0.166009 0.334711 0.927583 209 103 67
-2.80972 -1.27222 -7.97387 0.659165 0.433494 0.614479 207 99 71
-2.77248 -1.27118 -7.98986 0.466003 0.49797 0.731346 210 100 72
-2.74522 -1.2742 -8.02962 0.448503 0.563521 0.69375 218 106 79
-2.70125 -1.26358 -8.02933 -0.281523 0.801506 0.527573 213 104 73
-2.3437 -1.31337 -7.96764 -0.026604 0.891909 0.451432 214 107 75
-2.20606 -1.31588 -7.99991 -0.463402 0.597329 0.654566 215 106 77
-2.16371 -1.31679 -7.99695 -0.366775 0.473938 0.800537 211 106 76
-2.12126 -1.32952 -7.90961 -0.427972 0.715014 0.552806 218 113 87
-2.05954 -1.32505 -7.82854 -0.611593 0.432708 0.662358 209 104 78
-2.07037 -1.32127 -7.87538 -0.474791 0.591732 0.65148 213 106 84
-1.57876 -1.37337 -7.92463 -0.555694 0.520499 0.648294 165 71 59
-1.53439 -1.37942 -7.88751 -0.321126 0.605041 0.728563 162 67 60
-1.49368 -1.39221 -7.84805 -0.594992 0.563972 0.572643 164 71 65
-1.49151 -1.3792 -7.81357 -0.476208 0.665092 0.575221 163 70 66
-1.45215 -1.39542 -7.80034 -0.570321 0.50777 0.645681 172 78 77
-1.41986 -1.40097 -7.7946 -0.459658 0.511428 0.726056 149 61 50
-1.28087 -1.40809 -7.86513 -0.660081 0.472707 0.583816 65 28 22
-1.28095 -1.40815 -7.86546 -0.660814 0.471104 0.584282 65 28 22
-1.24476 -1.41323 -7.88397 -0.65254 0.495186 0.573569 71 26 17
-1.19679 -1.41583 -7.68285 -0.599197 0.328981 0.729886 110 37 21
-1.13175 -1.42506 -7.66381 -0.444946 0.583613 0.679278 214 107 54
-0.287929 -1.51183 -7.75268 -0.736336 0.46674 0.489861 228 121 59
-0.248915 -1.50995 -7.73127 -0.62683 0.539813 0.56186 228 124 58
-0.107813 -1.50987 -7.72569 0.210377 0.699505 0.68296 237 132 66
-0.069782 -1.50057 -7.7319 0.316563 0.716013 0.622184 239 135 70
0.058612 -1.51971 -7.70349 -0.110343 0.702991 0.702587 236 131 66
0.0952084 -1.52236 -7.69397 -0.392508 0.753107 0.527985 233 126 63
0.132602 -1.53196 -7.6853 0.152298 0.648965 0.745419 230 122 59
0.166675 -1.5321 -7.6863 -0.0157998 0.655713 0.754845 232 123 57
0.231285 -1.53647 -7.68929 0.623318 0.288898 0.726645 239 125 65
-2.91692 -1.28156 -8.02378 -0.550031 -0.152976 0.821014 208 103 61
-2.91692 -1.28156 -8.02378 -0.550031 -0.152976 0.821014 208 103 61
-2.91692 -1.28156 -8.02378 -0.550031 -0.152976 0.821014 208 103 61
-2.85621 -1.29649 -7.92472 -0.119348 0.534175 0.836907 213 106 76
-2.81498 -1.30631 -7.93318 0.451826 0.610037 0.650928 216 109 85
-2.77712 -1.30071 -7.95643 0.39123 0.656794 0.64464 214 106 84
-2.30081 -1.32854 -7.92453 0.811287 0.328367 0.483724 219 111 82
-2.14007 -1.34652 -7.93931 -0.397861 0.700761 0.59215 222 116 91
-1.98227 -1.37219 -7.74714 -0.555691 0.402742 0.727329 199 98 69
-1.86981 -1.3921 -7.9312 -0.18891 0.881171 0.433418 190 91 62
-1.53206 -1.41045 -7.83924 -0.613502 0.5281 0.587133 182 82 66
-1.47243 -1.41002 -7.78542 -0.502772 0.688966 0.52206 179 82 72
-1.3869 -1.41035 -7.80475 -0.0353794 0.415996 0.908678 125 44 30
-1.37132 -1.44081 -7.79965 0.148313 0.57038 0.80788 150 58 39
-1.39347 -1.41653 -7.80338 0.0435568 0.438475 0.897687 135 49 33
-1.35775 -1.4162 -7.83351 -0.220911 0.509834 0.831425 100 36 27
-1.29986 -1.444 -7.83513 0.0496069 0.859631 0.508501 83 29 24
-1.2313 -1.4228 -7.70343 -0.643976 0.305146 0.701556 92 28 16
-1.2299 -1.43158 -7.72932 -0.677507 0.439433 0.589816 105 35 21
-1.18507 -1.42819 -7.72824 -0.637956 0.260972 0.724504 155 66 35
-1.18507 -1.42819 -7.72824 -0.637956 0.260972 0.724504 155 66 35
-1.17556 -1.42505 -7.71536 -0.533779 0.403187 0.743317 152 64 36
0.057089 -1.55104 -7.68855 -0.51252 0.773533 0.372786 235 129 65
0.0999836 -1.57706 -7.63864 -0.735721 0.291327 0.611428 236 126 61
0.164986 -1.56165 -7.65503 0.114477 0.786227 0.607242 234 123 56
0.204499 -1.57935 -7.63848 0.4012 0.694484 0.597269 234 121 57
-2.78655 -1.32469 -7.92137 -0.412615 0.68009 0.605992 212 106 79
-2.75091 -1.32504 -7.92959 -0.0332003 0.885472 0.463504 210 105 78
-2.24047 -1.38431 -7.90507 0.289846 0.845012 0.449382 226 115 91
-2.18308 -1.39862 -7.90483 -0.063309 0.895575 0.440383 214 108 78
-2.13957 -1.3855 -7.91698 0.0725887 0.802532 0.592177 209 105 75
-2.09664 -1.40126 -7.87165 0.172002 0.762072 0.624229 203 101 66
