ply
format ascii 1.0
element vertex 706
property float x
property float y
property float z
property float nx
property float ny
property float nz
property uchar diffuse_red
property uchar diffuse_green
property uchar diffuse_blue
end_header
-0.51959 0.1 -2.17841 0.643563 -0.441224 0.625419 240 162 71
-0.503305 0.0997121 -2.17876 0.653427 -0.398408 0.643664 231 153 73
-0.493646 0.09988 -2.19839 0.52106 0.199805 0.829804 190 107 49
-0.484588 0.0956308 -2.20272 0.381804 0.505478 0.773769 175 89 50
-0.475949 0.0977059 -2.20205 0.401839 0.5224 0.752079 177 88 48
-0.464675 0.100942 -2.20206 0.134937 0.658804 0.740114 180 93 50
-0.453977 0.0909079 -2.17864 -0.400163 0.662045 0.633692 173 80 43
-0.453339 0.0938948 -2.18697 0.127132 0.698757 0.703971 182 94 52
-0.443215 0.0930488 -2.17605 -0.280213 0.701584 0.65518 156 73 37
-0.443178 0.0913398 -2.17324 -0.315162 0.696293 0.644863 160 74 38
-0.441614 0.0975492 -2.19237 0.176612 0.725462 0.665216 164 87 47
-0.43213 0.0945665 -2.17841 -0.408806 0.66136 0.628873 145 67 35
-0.431249 0.0937246 -2.1769 -0.39194 0.669746 0.630733 145 67 34
-0.431249 0.0937246 -2.1769 -0.39194 0.669746 0.630733 145 67 34
-0.425411 0.0813462 -2.15012 -0.412698 0.557053 0.720675 159 83 44
-0.425435 0.0922457 -2.17345 -0.440215 0.647774 0.621772 153 75 39
-0.403309 0.0944029 -2.19683 -0.62651 0.524172 0.576827 135 59 30
-0.403309 0.0944029 -2.19683 -0.62651 0.524172 0.576827 135 59 30
-0.403309 0.0944029 -2.19683 -0.62651 0.524172 0.576827 135 59 30
-0.3961 0.0914394 -2.18601 -0.426782 0.663184 0.614853 144 65 34
-0.387384 0.0886813 -2.17744 -0.409462 0.520541 0.749251 147 72 37
-0.377985 0.0876117 -2.17734 -0.0853121 0.751563 0.654121 152 72 37
-0.381478 0.0850538 -2.17257 -0.439119 0.620735 0.64951 150 72 38
-0.381828 0.0851183 -2.17164 -0.356456 0.69838 0.620648 151 71 37
-0.381828 0.0851183 -2.17164 -0.356456 0.69838 0.620648 151 71 37
-0.36951 0.0862117 -2.16625 0.143202 0.727766 0.670708 161 78 42
-0.371267 0.0865594 -2.17309 0.104442 0.736901 0.667884 153 71 38
-0.371267 0.0865594 -2.17309 0.104442 0.736901 0.667884 153 71 38
-0.357429 0.0778183 -2.15248 0.136648 0.730771 0.668806 161 82 42
-0.346566 0.0869812 -2.17506 -0.794243 0.0263686 0.607028 176 80 41
-0.344153 0.0831165 -2.16977 0.536363 0.509653 0.672732 179 91 49
-0.33266 0.0839878 -2.16935 0.38803 0.435721 0.812145 175 81 42
-0.321649 0.0834064 -2.17184 0.418245 0.435926 0.796894 170 76 40
-0.3123 0.0804563 -2.16277 0.533924 0.265197 0.802867 160 70 35
-0.311795 0.0854077 -2.16907 -0.700342 0.49275 0.516448 150 58 26
-0.303355 0.0772803 -2.16105 -0.238402 0.720595 0.651082 147 58 26
-0.297415 0.0792439 -2.15632 -0.640066 0.55772 0.528454 148 60 28
-0.296313 0.079313 -2.16646 -0.645638 0.494644 0.581789 151 62 29
-0.29311 0.0740633 -2.15001 -0.642029 0.559601 0.524067 148 61 29
-0.286044 0.0779135 -2.16039 -0.433803 0.651053 0.622853 153 66 34
-0.276164 0.0779593 -2.1539 -0.688949 0.457846 0.561896 150 66 35
-0.27276 0.0700555 -2.14491 -0.68449 0.530379 0.500172 142 60 33
-0.266575 0.0726489 -2.15511 -0.648875 0.506374 0.567931 146 65 35
-0.250257 0.0825699 -2.17858 -0.137404 0.756066 0.639909 144 65 33
-0.245325 0.0742889 -2.16786 0.0836268 0.734632 0.673292 153 69 36
-0.245325 0.0742889 -2.16786 0.0836268 0.734632 0.673292 153 69 36
-0.233629 0.0791978 -2.17336 -0.165139 0.718672 0.675455 145 67 38
-0.232672 0.0695178 -2.14475 -0.120608 0.759778 0.638898 154 71 42
-0.237721 0.0681296 -2.13677 -0.3609 0.726654 0.584573 156 72 42
-0.221056 0.0798857 -2.17411 -0.443538 0.697461 0.562869 134 62 34
-0.214326 0.0765092 -2.1703 -0.579173 0.583304 0.569486 139 62 32
-0.205163 0.0655163 -2.12926 -0.495674 0.267498 0.826288 137 70 37
-0.178172 0.0650013 -2.15379 -0.59162 0.589822 0.549632 113 55 29
-0.164946 0.072137 -2.16434 -0.282441 0.729304 0.623171 126 63 36
-0.154939 0.0695811 -2.1534 0.481571 0.468275 0.740815 125 62 33
-0.145334 0.0613068 -2.14745 -0.0820721 0.761308 0.643175 144 75 45
-0.130345 0.0697172 -2.16136 -0.0514274 0.734947 0.676172 125 69 40
-0.0875021 0.0604671 -2.15759 -0.0183709 0.677061 0.735697 142 68 37
-0.0835126 0.0664757 -2.16247 0.407235 0.511303 0.756788 137 63 32
-0.0763031 0.0646975 -2.15535 -0.0246271 0.675197 0.737226 138 67 36
-0.0661682 0.0562824 -2.14034 0.0668035 0.628068 0.775286 138 65 35
-0.0556096 0.0603391 -2.13976 0.0362805 0.728926 0.683631 139 58 27
-0.0370195 0.0554698 -2.1359 -0.343304 0.699613 0.626645 137 59 31
-0.0392064 0.0528409 -2.13065 -0.872412 0.295404 0.389402 131 56 31
-0.0135723 0.059385 -2.17035 0.041468 0.686082 0.726342 156 81 51
-0.0207312 0.0486788 -2.12126 0.244116 0.502416 0.829449 147 73 45
-0.00609576 0.0537854 -2.14047 -0.214109 0.757506 0.616719 146 60 35
0.0237068 0.0515858 -2.14776 -0.548142 0.621201 0.560045 139 56 29
0.0312279 0.0549597 -2.13602 -0.734462 0.465894 0.493467 138 55 28
0.0226067 0.0424005 -2.10891 -0.832927 0.327328 0.446195 147 61 31
0.0345462 0.0509325 -2.12182 -0.824415 0.345839 0.448036 143 58 29
0.0742389 0.0482434 -2.1388 -0.774068 0.371195 0.512867 154 72 43
0.0724018 0.0473525 -2.14046 -0.801521 0.401571 0.443063 144 58 32
0.0877427 0.0489611 -2.1385 -0.393611 0.706179 0.588542 166 85 53
0.115521 0.0429644 -2.14133 -0.346809 0.725885 0.593982 157 71 40
0.137069 0.0470142 -2.16076 -0.619034 0.606496 0.498959 158 68 38
0.139132 0.0480317 -2.16619 -0.652804 0.58209 0.484787 165 73 41
0.134808 0.0446486 -2.14827 -0.711048 0.531875 0.459912 158 69 38
0.144232 0.0353982 -2.11327 -0.807476 0.335004 0.485546 171 84 53
0.179954 0.0404125 -2.1462 -0.273485 0.710572 0.648301 162 80 50
0.189714 0.0393244 -2.1345 -0.476569 0.638431 0.604391 135 66 40
0.206968 0.0457231 -2.15486 -0.502204 0.626717 0.595833 131 68 42
0.206719 0.0439787 -2.14293 -0.664732 0.592484 0.455075 140 76 47
0.215136 0.0419079 -2.13727 0.369425 0.193366 0.908919 143 72 41
0.224429 0.041667 -2.13606 0.0210498 -0.113717 0.99329 169 86 48
0.689969 0.15588 -2.86836 0.380492 0.320604 0.867432 251 120 70
0.675461 0.143053 -2.80554 0.380977 0.305945 0.872499 250 118 69
0.7716 0.162269 -2.9399 0.227885 0.511728 0.828374 249 113 68
0.777326 0.163732 -2.92778 0.194108 0.538226 0.820143 248 113 65
0.817342 0.171729 -2.97861 -0.476931 0.705469 0.524263 246 109 62
0.814365 0.154248 -2.91377 -0.574214 0.545361 0.610622 240 95 55
0.846488 0.153017 -2.92513 0.173271 0.0411059 0.984016 240 98 55
0.860112 0.152112 -2.9382 0.372581 0.260995 0.890542 238 96 50
0.853751 0.149426 -2.90477 0.0237778 0.125724 0.99178 237 97 49
0.947802 0.162352 -2.95838 -0.111262 0.0698232 0.991335 243 115 67
0.948497 0.151709 -2.89956 -0.99927 -0.00470413 -0.0379144 250 116 76
0.948497 0.151709 -2.89956 -0.99927 -0.00470413 -0.0379144 250 116 76
1.00989 0.134885 -2.89973 -0.645293 0.706177 0.291394 254 132 80
1.04912 0.140571 -2.90588 -0.462344 0.778796 0.423928 245 118 75
1.10676 0.137598 -2.88203 -0.861247 0.253817 0.440262 235 82 61
1.13219 0.130283 -2.89329 -0.679331 0.402739 0.613442 239 81 61
1.16414 0.136724 -2.90163 -0.527944 0.719637 0.450997 251 94 72
-0.551654 0.0822692 -2.14939 0.791414 0.176129 0.585356 237 159 71
-0.544425 0.0871492 -2.1529 0.729727 0.116637 0.673717 238 157 68
-0.540387 0.084785 -2.1495 0.712447 -0.479269 0.512563 232 154 70
-0.530355 0.0844532 -2.1665 0.733556 0.090817 0.673534 195 124 58
-0.509321 0.091324 -2.195 0.680282 -0.330852 0.654029 166 91 40
-0.501063 0.0935612 -2.20196 0.749488 -0.309403 0.585267 171 93 46
-0.488615 0.0897548 -2.20223 0.566253 0.132134 0.813571 166 84 49
-0.434811 0.0762443 -2.157 -0.254839 0.605549 0.753902 175 86 47
-0.425409 0.0725064 -2.14134 -0.323915 0.617452 0.716821 169 84 45
-0.415878 0.0701065 -2.1337 0.379496 0.591375 0.711518 164 86 46
-0.415796 0.0800918 -2.15362 -0.382224 0.682078 0.623437 148 70 38
-0.409387 0.0694692 -2.12684 0.261975 0.683346 0.681475 159 84 45
-0.397323 0.0806354 -2.16614 -0.482034 0.636949 0.601615 141 64 32
-0.396078 0.0732354 -2.14851 -0.534482 0.606433 0.5887 156 76 40
-0.382491 0.0732177 -2.15123 -0.539246 0.555426 0.633021 152 78 43
-0.368402 0.069791 -2.14535 -0.571922 0.590388 0.569515 147 73 39
-0.357011 0.0683894 -2.14539 -0.206563 0.724209 0.657915 155 78 40
-0.344866 0.0707436 -2.14466 0.452211 0.457931 0.765379 168 86 48
-0.332508 0.0724819 -2.16046 0.363426 0.608797 0.705187 173 84 45
-0.321509 0.0729287 -2.15751 -0.62885 0.502265 0.593531 176 77 41
-0.314997 0.0715167 -2.16078 0.283091 0.55485 0.782305 176 81 43
-0.305243 0.0730269 -2.15634 -0.75913 0.085152 0.645345 162 72 36
-0.297135 0.069472 -2.14593 -0.512317 0.650553 0.560636 149 60 28
-0.285528 0.0707576 -2.14796 -0.638932 0.566204 0.520748 140 57 30
-0.283874 0.0607352 -2.13816 0.0596494 0.67008 0.739888 156 70 37
-0.266614 0.0616518 -2.13576 -0.585163 0.521234 0.621208 149 64 33
-0.276656 0.0575688 -2.12436 -0.274392 0.720692 0.636641 151 62 31
-0.26503 0.0634817 -2.12768 -0.528128 0.606328 0.594515 151 67 35
-0.257928 0.0618354 -2.12773 -0.72526 0.429144 0.538361 154 68 37
-0.250468 0.0591118 -2.12993 -0.560985 0.63805 0.527435 154 67 37
-0.238638 0.0589674 -2.13094 -0.572284 0.634028 0.520096 152 65 34
-0.237401 0.066624 -2.14482 -0.0544401 0.699889 0.712174 156 74 41
-0.232949 0.0587655 -2.13319 -0.548217 0.650655 0.525458 149 65 35
-0.216937 0.0612657 -2.13616 -0.136973 0.724304 0.675738 154 75 39
-0.192338 0.0567762 -2.13099 0.198242 0.690826 0.695312 116 56 29
-0.167571 0.0564074 -2.14961 -0.262813 0.739113 0.620195 131 69 39
-0.155644 0.0525022 -2.14164 -0.210673 0.74976 0.627277 143 71 39
-0.156856 0.0541115 -2.1408 -0.320541 0.727554 0.606563 141 70 38
-0.147116 0.052476 -2.13006 -0.397058 0.70522 0.587375 131 59 32
-0.130822 0.0576669 -2.14661 0.0838418 0.721303 0.687526 143 75 44
-0.103685 0.0515141 -2.13513 0.0633279 0.639643 0.766059 129 56 28
-0.0926798 0.0450926 -2.12335 0.088631 0.62287 0.777288 142 73 42
-0.0926798 0.0450926 -2.12335 0.088631 0.62287 0.777288 142 73 42
-0.0841962 0.0482292 -2.11851 0.269245 0.625077 0.732657 144 68 36
-0.0677534 0.044287 -2.12361 0.129515 0.66757 0.733196 146 69 38
-0.0552613 0.0498594 -2.12801 -0.0343523 0.678631 0.733675 144 72 41
-0.0412468 0.0494382 -2.13148 -0.137944 0.714929 0.685454 147 73 43
-0.0295262 0.0453946 -2.12335 0.145076 0.564754 0.812407 135 59 33
-0.0234392 0.0364473 -2.1065 0.158563 0.617569 0.770368 139 63 34
0.00345597 0.0366017 -2.11578 -0.170652 0.743612 0.646467 143 65 34
0.0171186 0.043812 -2.12506 -0.69765 0.503467 0.509712 148 62 33
0.0358611 0.0320773 -2.10738 -0.204612 0.700516 0.683675 156 76 44
0.0454388 0.0378184 -2.10589 -0.0505017 0.749536 0.660035 160 81 50
0.0541435 0.0417823 -2.11976 -0.741096 0.472444 0.477045 139 56 30
0.0513776 0.0360493 -2.11056 -0.707623 0.459579 0.536709 141 58 31
0.0760677 0.0405809 -2.13378 -0.734731 0.286299 0.614982 143 57 30
0.0600299 0.0328805 -2.11581 -0.173191 0.707049 0.685629 143 56 29
0.0600299 0.0328805 -2.11581 -0.173191 0.707049 0.685629 147 61 33
0.0773313 0.0339636 -2.1296 -0.738202 0.34945 0.577012 141 57 30
0.0914012 0.0421927 -2.13847 -0.68285 0.486718 0.544814 158 75 46
0.0881159 0.0383362 -2.13001 -0.471567 0.628641 0.618413 150 63 36
0.0945224 0.037328 -2.11922 -0.762172 0.151853 0.629313 153 67 37
0.0861987 0.0313489 -2.11266 -0.390387 0.690509 0.608929 155 74 44
0.0894698 0.0336483 -2.11998 -0.378582 0.692665 0.613915 156 75 44
0.092296 0.0282714 -2.10581 -0.482993 0.668423 0.565621 148 67 36
0.0922582 0.0282525 -2.10571 -0.467458 0.673292 0.572854 161 84 51
0.109388 0.0302521 -2.11484 -0.424839 0.648303 0.631834 161 81 48
0.103154 0.0271519 -2.09778 -0.351209 0.755855 0.552571 175 96 60
0.130284 0.0237341 -2.09465 -0.615681 0.54092 0.573011 159 76 46
0.144019 0.0255702 -2.09948 -0.433342 0.467471 0.77051 158 75 45
0.160716 0.0286306 -2.11103 -0.244805 0.705837 0.664729 155 69 38
0.237931 0.0330671 -2.14283 0.369976 -0.485412 0.792145 201 95 52
0.24629 0.0274257 -2.14229 -0.0793008 -0.630079 0.772471 243 116 68
0.725836 0.140581 -2.90692 0.368696 0.339124 0.865481 245 101 60
0.745823 0.13912 -2.90883 -0.305623 -0.206565 0.929476 244 101 61
0.77291 0.147117 -2.91856 0.0107594 0.666097 0.745787 242 101 58
0.800833 0.150478 -2.92059 -0.65231 0.479816 0.586744 237 90 51
0.80735 0.135858 -2.88295 -0.843315 0.436259 0.313844 246 100 61
0.803133 0.129708 -2.87523 -0.616764 0.686357 0.385378 250 105 63
0.876826 0.149884 -2.93778 0.396587 0.183217 0.899528 239 100 48
0.94423 0.144287 -2.94564 0.12269 0.217222 0.968381 242 114 63
0.939336 0.134801 -2.89614 -0.520275 -0.84182 0.143713 248 124 75
0.950478 0.139141 -2.91944 -0.520356 -0.841753 0.143812 248 123 74
0.926196 0.119746 -2.86599 -0.998648 0.0357935 0.0376892 249 127 73
0.954814 0.124256 -2.85423 0.233872 0.446082 0.863895 248 126 78
0.984797 0.115799 -2.84761 -0.813344 0.562083 0.150113 251 130 77
1.02982 0.115844 -2.89194 -0.988341 0.112914 -0.102141 250 129 76
1.02982 0.115844 -2.89194 -0.988341 0.112914 -0.102141 250 129 76
1.1051 0.123065 -2.90508 -0.996808 0.00262595 -0.0797935 228 109 64
1.10425 0.120016 -2.87575 0.245043 0.369401 0.89638 228 94 61
1.1344 0.116178 -2.87767 -0.0487715 0.666312 0.744077 238 92 61
1.1637 0.105506 -2.86815 -0.0947615 0.728641 0.678309 238 121 69
1.16665 0.105995 -2.87168 -0.0133148 0.674739 0.737937 238 121 69
1.16665 0.105995 -2.87168 -0.0133148 0.674739 0.737937 238 121 69
-0.593432 0.0737059 -2.12816 0.606394 -0.550865 0.573441 237 154 61
-0.586156 0.0747974 -2.13084 0.620009 -0.525922 0.582233 238 156 60
-0.578677 0.0763135 -2.13402 0.608031 -0.539058 0.582851 237 155 60
-0.544909 0.0774772 -2.16068 0.690723 -0.00744672 0.723081 160 87 39
-0.534731 0.0754913 -2.1626 -0.146261 0.679299 0.719139 148 81 43
-0.520612 0.0827854 -2.17326 0.124907 0.733518 0.668094 154 87 43
-0.508969 0.0792059 -2.18145 0.653548 0.256316 0.712164 146 80 46
-0.496257 0.0821481 -2.19162 0.694542 0.0963436 0.712972 156 82 46
-0.488366 0.0782518 -2.19368 0.559112 0.437762 0.704101 156 83 45
-0.482862 0.0711339 -2.15082 -0.210925 0.713895 0.667731 154 78 42
-0.47498 0.0676852 -2.14342 -0.0360391 0.719629 0.693423 164 89 50
-0.454694 0.0783926 -2.17555 0.0940016 -0.32402 0.941369 173 91 51
-0.444743 0.0770479 -2.16716 -0.533755 0.384671 0.753083 178 92 53
-0.44025 0.0659211 -2.15216 -0.472276 0.453096 0.756082 170 89 50
-0.434999 0.0664134 -2.14535 -0.734478 0.393508 0.552896 172 79 44
-0.426085 0.0694111 -2.14902 -0.333027 0.702957 0.628446 172 77 42
-0.415331 0.066234 -2.132 0.0780641 0.558963 0.82551 166 85 46
-0.396173 0.0643898 -2.13515 -0.166079 0.729732 0.663256 159 80 44
-0.382243 0.0659887 -2.14169 -0.162424 0.752565 0.638172 158 79 43
-0.369114 0.0598792 -2.12846 -0.296392 0.698272 0.651589 170 93 52
-0.336526 0.0608113 -2.14421 0.261051 0.694448 0.670519 172 96 54
-0.322413 0.060024 -2.14058 0.419067 0.603711 0.678172 178 92 49
-0.31553 0.0596602 -2.14896 0.284505 0.557243 0.780088 167 79 40
-0.298006 0.0603357 -2.13869 -0.556638 0.627183 0.54479 164 68 33
-0.289571 0.0571541 -2.12973 -0.162973 0.724046 0.670222 161 68 35
-0.285608 0.049922 -2.12475 -0.151059 0.482121 0.862983 168 74 40
-0.274855 0.0500305 -2.11239 0.0495296 0.287652 0.956453 160 74 37
-0.275663 0.0523042 -2.12324 -0.646124 0.471485 0.600188 155 64 31
-0.266831 0.0503929 -2.11446 -0.715542 0.406173 0.568351 152 63 30
-0.251027 0.0504231 -2.11765 -0.307252 0.717611 0.625004 155 67 36
-0.241376 0.0416574 -2.09848 0.0796608 0.743952 0.663468 162 69 37
-0.238751 0.0506452 -2.12094 -0.728079 0.507103 0.461247 150 66 37
-0.21541 0.0481786 -2.12013 0.191129 0.701115 0.686955 142 71 38
-0.216957 0.0495438 -2.12426 0.216494 0.691428 0.689244 145 72 39
-0.205267 0.0514127 -2.12157 0.207474 0.691578 0.691863 138 69 36
-0.209256 0.0459318 -2.11351 0.162446 0.691623 0.703754 143 78 44
-0.195322 0.0494094 -2.12722 -0.541947 0.624023 0.562929 122 62 35
-0.190365 0.0479505 -2.12993 0.0645668 0.669784 0.739743 136 72 41
-0.178279 0.042829 -2.12819 -0.368527 0.612936 0.698926 137 70 38
-0.177792 0.051558 -2.13864 -0.605937 0.538897 0.585175 120 60 33
-0.179709 0.0406632 -2.11685 0.0642649 0.708669 0.702608 145 77 43
-0.167433 0.0473523 -2.13975 -0.111297 0.754454 0.646848 138 68 37
-0.169785 0.0408621 -2.12107 -0.464269 0.623501 0.629047 132 62 34
-0.167483 0.05186 -2.14329 -0.213753 0.7488 0.627382 137 70 39
-0.161244 0.0366414 -2.10267 -0.812425 0.367574 0.452609 135 64 35
-0.142388 0.0460337 -2.12631 -0.733525 0.480104 0.481083 138 62 30
-0.142388 0.0460337 -2.12631 -0.733525 0.480104 0.481083 133 61 32
-0.148404 0.0464573 -2.12196 -0.699518 0.513888 0.496583 131 59 31
-0.141732 0.0464489 -2.12775 -0.666528 0.598719 0.444157 131 60 33
-0.129734 0.0415969 -2.11686 0.026853 0.747409 0.663821 137 60 29
-0.0790287 0.0357167 -2.11425 -0.153683 0.741436 0.653187 143 68 37
-0.0548265 0.0403924 -2.12027 -0.291815 0.666845 0.685684 143 67 37
-0.042677 0.038493 -2.11621 -0.00933649 0.668745 0.743433 138 64 35
-0.0339926 0.0328543 -2.10535 -0.127903 0.6948 0.707738 144 72 42
-0.0316865 0.0319578 -2.10483 -0.0669002 0.687843 0.72277 139 66 38
-0.0129441 0.0287529 -2.09867 -0.0124616 0.676604 0.736242 134 59 31
0.00345176 0.0255423 -2.10561 -0.119811 0.611174 0.782375 129 57 31
0.00732909 0.032764 -2.1083 -0.0971264 0.201365 0.974689 136 60 32
0.0193442 0.0344355 -2.11531 -0.211718 0.227936 0.950379 149 72 42
0.0135545 0.0264471 -2.10885 0.377438 -0.101492 0.920456 141 69 40
0.0236722 0.0263992 -2.11264 0.369964 -0.0198637 0.928834 143 67 37
0.0400566 0.0258766 -2.09375 -0.515448 0.671242 0.532679 157 69 40
0.0615445 0.0269044 -2.11381 -0.83202 0.356303 0.425195 144 58 31
0.0748559 0.0229636 -2.11139 -0.892186 0.124834 0.434075 148 71 41
0.0869894 0.0257289 -2.09596 -0.397544 -0.857982 0.325309 157 74 41
0.0900528 0.0153436 -2.07604 -0.252058 -0.882774 0.396455 169 93 58
0.105404 0.0254401 -2.10227 -0.41187 0.678412 0.608375 167 90 56
0.106557 0.0190568 -2.0939 -0.360644 0.175828 0.915981 170 93 57
0.106547 0.0190485 -2.09385 -0.362102 0.170472 0.916418 158 78 46
0.104774 0.0228883 -2.09126 -0.185386 0.727392 0.660706 171 90 56
0.116565 0.0196627 -2.09393 -0.46757 0.350548 0.811477 157 79 47
0.119572 0.0213971 -2.09965 -0.40343 0.110387 0.908328 157 79 47
0.121629 0.0181165 -2.09304 -0.342524 0.117018 0.932193 164 87 54
0.128554 0.0186841 -2.08265 -0.597825 0.315804 0.736799 159 73 42
0.188104 0.0153018 -2.10706 0.507847 -0.199557 0.838014 153 60 30
0.237659 0.0226264 -2.14997 0.362104 -0.551167 0.751728 197 87 51
0.248025 0.0181423 -2.15367 0.0975502 -0.608115 0.787833 246 115 71
0.752627 0.128632 -2.8904 0.40511 0.243676 0.881197 238 98 55
0.789119 0.116225 -2.87515 -0.963128 0.0502981 0.2643 245 101 61
0.808845 0.128742 -2.88523 -0.250163 0.750649 0.61151 246 99 59
0.80983 0.110484 -2.84611 -0.553144 0.685765 0.473032 238 97 51
0.89309 0.105727 -2.82864 -0.99796 0.0461783 0.0440859 244 123 66
0.994994 0.0929762 -2.82468 -0.990421 0.129553 -0.0477646 250 134 79
1.09183 0.0951996 -2.86213 0.29214 0.274645 0.916092 234 121 69
1.09183 0.0951996 -2.86213 0.29214 0.274645 0.916092 234 121 69
1.09963 0.0916355 -2.84352 0.247552 0.363052 0.898282 237 115 69
1.13146 0.0919866 -2.85288 0.198051 0.442524 0.874613 243 119 71
-0.62157 0.0624021 -2.10666 0.605184 -0.565142 0.560683 238 155 60
-0.613855 0.0632479 -2.11335 0.655249 -0.484903 0.579239 238 153 59
-0.607648 0.0646876 -2.11606 0.640014 -0.505567 0.578605 237 154 59
-0.599642 0.0653488 -2.12183 0.590002 -0.53233 0.60706 236 154 59
-0.591607 0.0656637 -2.12928 0.627535 -0.359655 0.690542 230 151 64
-0.583829 0.0670033 -2.13481 0.656014 -0.371188 0.657164 219 142 64
-0.551788 0.0711079 -2.14964 0.756976 0.146991 0.636696 168 96 46
-0.544806 0.0681938 -2.15011 0.0443091 0.748147 0.662052 150 78 46
-0.534234 0.0667453 -2.16303 0.866833 0.0842867 0.491423 154 87 50
-0.534234 0.0667453 -2.16303 0.866833 0.0842867 0.491423 154 87 50
-0.534234 0.0667453 -2.16303 0.866833 0.0842867 0.491423 154 87 50
-0.525054 0.0742681 -2.17189 0.59126 0.319179 0.740633 147 83 47
-0.51692 0.0718383 -2.17544 0.81031 -0.417589 0.411117 153 92 53
-0.502565 0.0653699 -2.15302 0.495972 0.0643359 0.865952 160 95 54
-0.481972 0.0593716 -2.12236 -0.13261 0.694401 0.707263 149 79 42
-0.475062 0.0592791 -2.13501 -0.215414 0.665643 0.714504 149 78 42
-0.465797 0.0646406 -2.14261 -0.0534605 0.679435 0.731786 155 81 45
-0.457568 0.057519 -2.1384 -0.48041 0.496866 0.722724 161 90 51
-0.449193 0.065487 -2.15786 -0.360247 0.543487 0.758185 161 87 49
-0.448808 0.0551623 -2.13361 -0.464308 0.458012 0.758052 155 83 45
-0.440093 0.0620201 -2.13966 -0.0763534 0.716281 0.693622 166 82 45
-0.440177 0.0568819 -2.1367 -0.106353 0.676014 0.729173 160 82 43
-0.416806 0.0572696 -2.12193 0.022295 0.697686 0.716056 182 91 50
-0.418344 0.0484951 -2.10931 0.0240038 0.700148 0.713594 177 90 49
-0.408478 0.0510003 -2.1138 -0.29276 0.726917 0.621195 185 86 46
-0.406986 0.0527736 -2.11668 0.139856 0.707122 0.693122 182 91 50
-0.396246 0.0540193 -2.12164 0.195531 0.729248 0.655718 179 95 54
-0.393765 0.0499071 -2.11326 -0.212027 0.749428 0.627217 171 79 41
-0.382579 0.0460616 -2.11117 -0.0184056 0.754726 0.655782 168 83 44
-0.382207 0.0577474 -2.13368 -0.157567 0.703053 0.693462 157 81 43
-0.382493 0.0546589 -2.12326 -0.388299 0.696434 0.603492 150 71 36
-0.371564 0.0502716 -2.11378 -0.586627 0.585301 0.559724 155 76 40
-0.334365 0.0489853 -2.12541 -0.174861 0.760896 0.624869 158 76 41
-0.324607 0.0453605 -2.11355 -0.183292 0.740402 0.64669 160 79 44
-0.314526 0.0447623 -2.1078 0.478075 0.558249 0.678087 170 93 50
-0.319001 0.0442885 -2.11578 0.156494 0.733814 0.66108 164 83 44
-0.319001 0.0442885 -2.11578 0.156494 0.733814 0.66108 168 91 50
-0.308424 0.0473037 -2.11961 -0.177494 0.763322 0.621157 165 77 38
-0.308424 0.0473037 -2.11961 -0.177494 0.763322 0.621157 165 77 38
-0.298472 0.0435095 -2.10618 -0.18804 0.763652 0.617638 169 76 38
-0.276145 0.039298 -2.09638 0.168282 0.712118 0.681593 188 87 47
-0.278315 0.0433724 -2.11628 -0.647793 0.472236 0.597793 170 73 39
-0.263292 0.0453856 -2.11112 0.050357 0.67337 0.737589 160 72 35
-0.253489 0.03805 -2.09556 0.0393637 0.676903 0.735019 160 73 37
-0.240306 0.0326999 -2.09267 0.0784932 0.74377 0.663811 150 72 40
-0.215334 0.0366669 -2.1089 0.0502644 0.751047 0.658332 154 72 40
-0.214621 0.0352234 -2.10667 0.0739531 0.659186 0.748334 156 76 42
-0.202984 0.0419849 -2.11776 0.128975 0.656295 0.743399 148 75 41
-0.19196 0.0356547 -2.1093 0.0588089 0.662379 0.746857 145 69 36
-0.186402 0.029211 -2.08343 0.174967 0.708279 0.683906 144 66 33
-0.186527 0.026766 -2.0811 0.141597 0.722632 0.676575 145 65 33
-0.186416 0.0262639 -2.08141 0.178678 0.708013 0.683221 145 65 33
-0.186416 0.0262639 -2.08141 0.178678 0.708013 0.683221 145 65 33
-0.177227 0.0242004 -2.07175 -0.0743305 0.763279 0.641779 137 59 30
-0.169433 0.0336822 -2.10528 -0.616478 0.430786 0.659074 135 66 35
-0.160644 0.0264882 -2.08302 -0.785575 0.41297 0.460791 132 60 32
-0.140586 0.0371999 -2.11903 -0.727626 0.490776 0.47927 142 64 33
-0.115995 0.0224194 -2.08261 0.242587 0.659703 0.711297 131 58 27
-0.0713656 0.0237704 -2.09597 0.0389495 0.743857 0.667203 137 64 33
-0.0465056 0.0265771 -2.09946 0.406671 0.496205 0.767072 143 66 35
-0.0495439 0.0173143 -2.08652 0.146722 0.698382 0.700525 141 65 33
-0.0366931 0.0219853 -2.08863 0.0198154 0.745465 0.66625 163 89 54
-0.0229026 0.0253552 -2.09882 0.159935 0.620769 0.767507 139 62 34
-0.0137975 0.0172721 -2.08558 -0.259373 0.687768 0.678012 131 55 29
0.0435595 0.0165663 -2.09548 -0.599138 0.412343 0.6863 150 72 42
0.0568748 0.0203452 -2.10691 -0.741569 0.462911 0.485582 150 65 35
0.0590606 0.0200508 -2.10718 -0.834531 0.354438 0.421819 163 84 52
0.0562618 0.00520293 -2.05815 -0.360614 0.324549 0.874429 153 71 40
0.0719854 0.0123644 -2.06722 -0.237791 -0.922442 0.30423 161 88 56
0.104052 0.0092044 -2.07819 -0.745078 0.253615 0.616878 155 78 46
0.10201 0.00737159 -2.06882 -0.50897 0.577976 0.637882 161 87 53
0.114435 0.00760311 -2.06872 -0.430945 0.652103 0.623737 140 60 31
0.237718 0.0127085 -2.15777 0.213353 -0.62348 0.752166 196 84 52
0.721317 0.120591 -2.90342 0.29742 0.386772 0.872897 223 77 37
0.727441 0.120652 -2.88855 -0.0834365 0.0415237 0.995648 227 84 44
0.740473 0.10599 -2.87582 0.411747 0.236453 0.880088 231 102 45
0.764789 0.10609 -2.88747 0.403795 0.24396 0.881722 228 100 44
0.774642 0.10039 -2.86219 -0.42699 -0.0873862 0.900024 233 102 51
0.793065 0.098766 -2.84907 -0.906837 0.331089 0.26082 238 102 54
0.781673 0.094643 -2.81203 -0.999974 -0.00684111 0.00237322 244 112 61
0.816169 0.0958273 -2.83778 -0.762638 0.474652 0.43942 240 110 57
0.814132 0.0973729 -2.82749 -0.356267 0.671647 0.649588 241 110 57
0.779886 0.083875 -2.73681 -0.0303832 0.724283 0.688833 244 117 56
0.779886 0.083875 -2.73681 -0.0303832 0.724283 0.688833 244 117 56
0.78059 0.0840149 -2.73783 -0.0302547 0.724251 0.688872 244 117 56
0.868136 0.0914785 -2.84968 -0.333833 0.785372 0.521293 242 117 54
0.882853 0.0969252 -2.82339 -0.995211 0.0813034 0.0542638 243 121 62
0.903686 0.0791689 -2.74833 -0.996494 0.070399 -0.0451978 252 137 77
0.915544 0.0673523 -2.73925 -0.996148 0.0697718 -0.053112 251 133 75
0.913673 0.0687558 -2.74357 -0.995677 0.0782544 -0.0500424 249 129 73
0.913848 0.0670679 -2.73702 -0.996117 0.0703828 -0.0528817 248 129 74
1.0082 0.0864156 -2.83064 -0.988022 0.146807 -0.0475453 248 134 76
1.0216 0.0768832 -2.80408 -0.996578 -0.017304 -0.0808317 238 127 71
-0.65114 0.0530913 -2.08119 0.818467 -0.0505288 0.572328 236 156 62
-0.598686 0.0573867 -2.12913 0.592795 -0.505728 0.626764 180 108 50
-0.589351 0.0580494 -2.13985 0.671594 -0.336465 0.660116 139 77 36
-0.587948 0.058401 -2.1404 0.702259 -0.324355 0.633739 137 76 36
-0.582196 0.0598377 -2.14346 0.712022 -0.324614 0.622616 137 75 35
-0.544852 0.06552 -2.15686 0.59725 0.369859 0.711686 147 77 45
-0.546991 0.0574812 -2.14558 0.880098 -0.202604 0.429394 157 89 51
-0.546987 0.0575017 -2.14535 0.229371 -0.0364112 0.972658 156 88 52
-0.529031 0.0651911 -2.16475 0.870646 0.0530805 0.489038 155 89 51
-0.503547 0.0512009 -2.12146 0.64194 0.493375 0.586936 153 88 49
-0.487192 0.0493861 -2.09724 -0.584751 0.351873 0.730925 148 81 45
-0.487192 0.0493861 -2.09724 -0.584751 0.351873 0.730925 148 81 45
-0.487192 0.0493861 -2.09724 -0.584751 0.351873 0.730925 148 81 45
-0.477301 0.0462173 -2.09235 -0.51865 0.44297 0.731287 150 82 46
-0.467606 0.054061 -2.13232 -0.613711 0.25897 0.745851 154 84 45
-0.468665 0.0439371 -2.10219 -0.532239 0.436115 0.725621 151 81 46
-0.463251 0.0443351 -2.11356 -0.514069 0.461693 0.722892 153 80 44
-0.448375 0.0539453 -2.13834 -0.471744 0.452588 0.756718 155 83 46
-0.446393 0.0467085 -2.12605 -0.557058 0.523256 0.644895 148 76 41
-0.445671 0.0439734 -2.11177 -0.539963 0.377814 0.752128 153 80 45
-0.444565 0.0449166 -2.12581 -0.558791 0.424181 0.712617 158 82 48
-0.444565 0.0449166 -2.12581 -0.558791 0.424181 0.712617 158 82 48
-0.444565 0.0449166 -2.12581 -0.558791 0.424181 0.712617 158 82 48
-0.444565 0.0449166 -2.12581 -0.558791 0.424181 0.712617 158 82 48
-0.435254 0.0497282 -2.12297 -0.392769 0.578917 0.714554 160 85 46
-0.425065 0.0450655 -2.11489 0.027578 0.702524 0.711126 162 83 45
-0.415186 0.0411695 -2.1016 0.029492 0.756704 0.653093 177 89 49
-0.410307 0.0392288 -2.10157 -0.272195 0.737615 0.617928 176 83 46
-0.401182 0.035395 -2.08949 -0.221354 0.752181 0.620666 178 83 42
-0.393967 0.0410123 -2.09595 -0.329341 0.721425 0.609164 179 83 43
-0.382952 0.0370091 -2.09123 -0.0406043 0.756205 0.653073 175 84 45
-0.371821 0.0415052 -2.09853 -0.0223109 0.686008 0.727252 159 81 45
-0.361977 0.0375652 -2.09501 -0.286388 0.663413 0.691278 155 75 39
-0.352592 0.0356463 -2.0921 -0.429615 0.650262 0.62657 153 76 40
-0.324347 0.0375852 -2.10622 -0.541087 0.638339 0.547493 157 77 42
-0.312732 0.0268154 -2.07364 -0.529851 0.602435 0.596934 165 82 43
-0.306282 0.0286483 -2.07922 0.310511 0.67297 0.671338 167 87 48
-0.295783 0.0312603 -2.08146 0.590161 0.417985 0.690651 171 91 51
-0.285882 0.0301698 -2.0854 0.427742 0.395844 0.812616 167 85 48
-0.264697 0.0339232 -2.09414 0.0924956 0.747097 0.658248 176 80 42
-0.24675 0.0306365 -2.08369 0.141344 0.731161 0.667402 158 74 39
-0.245849 0.021967 -2.07749 0.0552971 0.748878 0.660397 173 85 47
-0.232 0.0273446 -2.09051 0.0427121 0.755824 0.653381 150 68 38
-0.227709 0.0288261 -2.09357 0.0162423 0.710867 0.703139 162 84 48
-0.221206 0.0208402 -2.07709 0.113859 0.740493 0.662349 170 77 40
-0.217327 0.0239638 -2.08587 -0.0279678 0.690231 0.723049 164 76 41
-0.208989 0.0191372 -2.07358 -0.237094 0.774241 0.586803 171 80 43
-0.207732 0.0214149 -2.08025 -0.316155 0.731102 0.604596 166 73 38
-0.204241 0.0301182 -2.09903 -0.0100943 0.686779 0.726796 164 78 43
-0.196655 0.0279672 -2.08735 0.154008 0.719972 0.676699 163 74 38
-0.196346 0.0206637 -2.0798 -0.401091 0.705765 0.58397 162 75 40
-0.194777 0.0214449 -2.08579 -0.252069 0.741419 0.621899 162 75 40
-0.18116 0.0161107 -2.06137 -0.0992069 0.778554 0.619686 151 75 44
-0.178001 0.0223571 -2.06746 -0.53353 0.643336 0.549058 144 71 40
-0.177563 0.0151888 -2.06151 0.0460902 0.755064 0.654029 148 72 40
-0.1776 0.0142756 -2.05987 0.00870808 0.760409 0.649386 149 72 41
-0.174125 0.0182335 -2.06636 0.157872 0.714737 0.681342 141 65 34
-0.115915 0.0119526 -2.07098 0.0114586 0.752323 0.658695 141 64 33
-0.0973224 0.0132724 -2.05533 -0.697515 0.547713 0.462042 139 66 40
-0.0915469 0.00888618 -2.06298 -0.304263 0.718958 0.624918 140 66 35
-0.0588154 0.0168674 -2.08451 0.0569004 0.738283 0.672087 140 66 36
-0.0276144 0.00881397 -2.07613 0.164074 0.620911 0.766518 137 61 32
-0.0116574 0.00845066 -2.08288 0.0386757 0.670349 0.741038 126 55 29
0.0271714 0.00503559 -2.09044 -0.798075 0.400125 0.450528 127 53 28
0.0326879 0.0067804 -2.08317 -0.359343 0.771021 0.525737 161 92 59
0.0345006 0.00673671 -2.08435 -0.688367 0.45005 0.568863 144 71 41
0.0385035 0.00570818 -2.06789 -0.262095 0.484031 0.834877 145 71 42
0.0466375 0.00468906 -2.05864 -0.365771 0.284396 0.886189 149 74 44
0.0612942 -0.00506919 -2.04836 -0.641733 0.645228 0.414559 158 74 41
0.0873481 -0.00327859 -2.05555 -0.217935 0.712181 0.66731 156 69 37
0.0899337 -0.00297277 -2.05227 -0.484559 0.677171 0.553752 147 63 33
0.101727 -0.000939659 -2.06078 -0.362287 0.625696 0.690835 144 63 33
0.0974403 -0.00247302 -2.06294 -0.268866 0.704683 0.656608 138 57 29
0.236351 0.00195256 -2.16329 -0.159356 -0.448677 0.879372 189 80 45
0.247115 0.0079002 -2.15937 -0.345881 -0.663942 0.662983 245 114 71
0.684871 0.103512 -2.8658 0.286097 0.47464 0.832386 244 106 61
0.706086 0.102441 -2.86722 -0.398241 0.76687 0.503304 238 97 50
0.745127 0.0983137 -2.88756 -0.068451 0.259709 0.963258 235 108 46
0.766933 0.0869992 -2.86336 -0.990652 0.0852273 0.106515 228 102 44
0.77206 0.084236 -2.83941 -0.943894 0.236152 0.230859 226 101 45
0.787065 0.0836217 -2.8332 -0.985823 -0.0856249 0.144297 230 102 47
0.77228 0.0717315 -2.7844 -0.99996 -0.00836052 0.00333542 234 114 54
0.770459 0.0727755 -2.7464 0.276968 0.441578 0.853403 241 117 58
0.777665 0.0548567 -2.6791 -0.994877 0.100563 -0.0103029 246 127 69
0.774671 0.0541859 -2.67427 -0.423556 0.791947 0.439795 248 126 68
0.782472 0.0612007 -2.66602 -0.990715 -0.0957817 -0.0964928 248 135 76
0.776736 0.0524015 -2.66993 -0.726196 0.647698 0.230494 247 126 70
0.853878 0.0533512 -2.70035 -0.326389 0.812559 0.482926 253 142 80
0.923586 0.0552584 -2.72867 -0.997388 0.0722292 -0.000400037 245 123 68
0.910396 0.0523802 -2.72766 -0.154035 0.778956 0.607866 248 126 72
-1.08827 0.251306 -3.03899 0.915328 0.0789943 0.394886 48 38 37
-1.07023 0.242854 -3.00397 0.897779 0.141268 0.417176 48 38 37
-1.07552 0.244377 -3.06082 0.775726 -0.320523 0.543612 61 43 39
-0.654935 0.0475847 -2.08213 0.791849 -0.11155 0.600442 235 154 59
-0.646022 0.0484396 -2.0975 0.543788 0.231507 0.80666 235 152 57
-0.635906 0.0493338 -2.09921 0.681343 -0.178926 0.709759 234 154 62
-0.628419 0.0523336 -2.10395 0.674562 -0.331267 0.659718 234 153 61
-0.621355 0.0541463 -2.10733 0.634934 -0.478084 0.606874 235 154 63
-0.613594 0.055033 -2.11456 0.690213 -0.411816 0.594991 225 146 66
-0.606593 0.0563156 -2.12274 0.642937 -0.459275 0.612943 207 131 58
-0.548231 0.0562014 -2.15027 0.879918 0.0451195 0.472978 154 87 51
-0.539374 0.0475453 -2.11861 0.814 -0.215606 0.539369 149 85 49
-0.539378 0.0475482 -2.11866 0.819357 -0.212193 0.532568 149 85 49
-0.50467 0.0484137 -2.12121 0.814989 -0.392662 0.426156 154 89 48
-0.491147 0.0383125 -2.08959 -0.0987492 0.709847 0.697399 149 80 44
-0.48203 0.0356457 -2.08165 -0.543282 0.413649 0.730575 156 89 50
-0.473679 0.0372197 -2.08103 -0.576679 0.375078 0.725781 149 80 44
-0.470455 0.0418991 -2.0994 -0.459397 0.510364 0.726968 159 87 51
-0.453542 0.0412234 -2.10294 -0.476574 0.44344 0.759104 152 80 45
-0.453542 0.0412234 -2.10294 -0.476574 0.44344 0.759104 152 80 45
-0.451486 0.0353846 -2.08343 -0.510273 0.406601 0.757824 152 81 46
-0.453542 0.0412234 -2.10294 -0.476574 0.44344 0.759104 152 80 45
-0.443526 0.0406034 -2.10304 -0.527685 0.393086 0.753015 153 80 45
-0.443526 0.0406034 -2.10304 -0.527685 0.393086 0.753015 153 80 45
-0.421533 0.0312697 -2.08964 -0.574711 0.58076 0.576563 153 74 40
-0.425046 0.035779 -2.0911 -0.0276043 0.734188 0.678385 163 86 47
-0.418931 0.0289832 -2.08242 -0.48883 0.593974 0.638937 156 79 43
-0.411146 0.0291356 -2.08023 -0.1814 0.703224 0.687437 161 79 43
-0.396926 0.0268593 -2.08494 -0.232697 0.732788 0.639433 170 82 45
-0.396926 0.0268593 -2.08494 -0.232697 0.732788 0.639433 170 82 45
-0.383384 0.0282566 -2.07008 -0.627169 0.487335 0.607588 185 94 49
-0.359612 0.0271274 -2.08657 0.0573346 0.748446 0.660713 171 89 49
-0.348873 0.0219135 -2.0739 -0.100874 0.758731 0.643547 166 81 43
-0.348924 0.0296188 -2.08228 -0.576504 0.608801 0.544981 144 72 36
-0.338892 0.0226038 -2.07544 -0.34276 0.734185 0.586079 148 72 33
-0.329405 0.020376 -2.06526 -0.232766 0.737442 0.634034 156 78 39
-0.321651 0.0236943 -2.07568 0.465233 0.578113 0.670331 167 93 51
-0.313408 0.0167525 -2.06092 0.264791 0.508389 0.819406 156 83 48
-0.303067 0.0205765 -2.0735 -0.00701237 0.746232 0.665649 165 88 53
-0.295834 0.0207604 -2.07259 0.323069 0.592978 0.737566 152 81 46
-0.285025 0.0235583 -2.07809 0.250823 0.642805 0.723802 161 89 51
-0.274242 0.0158751 -2.06775 0.204046 0.71345 0.670339 153 86 50
-0.26906 0.01729 -2.07148 0.0648361 0.758504 0.648435 152 80 46
-0.256764 0.0228257 -2.0797 -0.282113 0.761506 0.583541 168 80 45
-0.257167 0.0149523 -2.0685 -0.217589 0.752062 0.62214 159 75 40
-0.24665 0.0132926 -2.06506 -0.121626 0.720344 0.68287 177 86 46
-0.24595 0.0213986 -2.07764 -0.287953 0.761982 0.580057 172 80 43
-0.233713 0.0166213 -2.07179 -0.000114173 0.763986 0.645233 159 70 37
-0.236629 0.0101459 -2.05985 0.0275851 0.76368 0.645006 170 73 39
-0.235665 0.0189048 -2.07286 -0.00111424 0.763109 0.646269 153 66 35
-0.2079 0.0139842 -2.07004 -0.197524 0.729235 0.655134 167 77 40
-0.194855 0.0134298 -2.0766 -0.152049 0.740869 0.654213 172 81 43
-0.182102 0.0118191 -2.07923 -0.529156 0.418018 0.738414 162 75 43
-0.170293 0.0115241 -2.06801 -0.427442 0.735606 0.525526 157 79 46
-0.15943 0.00802376 -2.06211 -0.726718 0.495096 0.476195 142 69 36
-0.146886 0.0104224 -2.07046 -0.825303 0.439754 0.354248 142 72 41
-0.130406 0.00624226 -2.06154 0.120141 0.729313 0.673549 144 67 35
-0.106978 0.0045252 -2.04992 0.132226 0.718958 0.68236 150 72 40
-0.0587018 0.00187492 -2.06221 0.403912 0.509709 0.759639 139 69 35
-0.0418056 0.00321149 -2.06164 0.127531 0.705599 0.697041 138 63 31
-0.0281153 -0.00232944 -2.06552 0.479591 0.385404 0.788325 130 59 27
0.0289766 -0.00392286 -2.05565 -0.909076 0.184035 0.37378 125 52 26
0.0421583 -0.0102478 -2.03714 -0.603949 -0.157431 0.78132 147 70 38
0.0496356 -0.0128804 -2.03439 -0.451624 0.374288 0.809904 160 86 53
0.0692786 -0.011803 -2.03978 -0.100109 0.775511 0.623347 162 77 44
0.0915805 -0.0104008 -2.04866 0.215109 0.568697 0.793922 151 67 36
0.231315 -0.0062894 -2.16673 0.347498 -0.46353 0.815098 153 57 27
0.243127 -0.00577134 -2.16842 0.240216 -0.345857 0.907017 234 107 59
0.245755 -0.00809583 -2.15967 -0.257662 -0.290675 0.921476 240 111 61
0.245755 -0.00809583 -2.15967 -0.257662 -0.290675 0.921476 240 111 61
0.245755 -0.00809583 -2.15967 -0.257662 -0.290675 0.921476 241 112 61
0.679831 0.0777436 -2.81982 -0.740995 0.567655 0.358739 250 120 71
0.714542 0.0792581 -2.84914 0.377889 0.331264 0.86456 238 112 52
0.732256 0.0793772 -2.84887 -0.17346 0.329845 0.927962 233 108 47
0.732076 0.0793407 -2.84858 -0.168041 0.327839 0.929669 233 108 47
0.761797 0.0672931 -2.81792 -0.984721 -0.174088 -0.00425322 231 107 48
0.768041 0.0704193 -2.8087 -0.905636 0.334144 0.261096 226 102 43
0.762558 0.06377 -2.78268 -0.99992 -0.0114349 0.00550957 233 112 49
0.766992 0.0576461 -2.78614 -0.905171 0.337867 0.257898 229 106 45
0.767212 0.0506311 -2.70643 -0.989494 -0.0482674 0.136276 236 113 54
0.763095 0.0576224 -2.70784 0.305189 0.388706 0.869349 234 109 51
0.765156 0.058095 -2.71126 0.306206 0.387023 0.869742 234 109 51
0.778034 0.0483548 -2.67332 -0.101392 -0.859712 0.500615 237 110 58
0.798129 0.0407345 -2.67074 -0.0838933 0.756852 0.64818 249 127 73
0.873701 0.0475131 -2.70583 -0.997057 0.0590545 -0.0488753 251 136 79
0.886274 0.0378917 -2.70567 -0.996599 0.0624262 -0.0537926 251 131 77
0.856362 0.0335596 -2.6787 -0.165054 0.787376 0.593967 254 139 81
1.00209 0.048875 -2.77427 -0.986304 -0.164808 -0.00661111 242 121 69
-1.09554 0.218778 -2.95063 0.916429 -0.255476 0.308041 44 38 38
-1.0796 0.218059 -2.96622 0.617521 -0.467504 0.632541 45 39 39
-1.07505 0.238115 -3.04508 0.744243 -0.308579 0.592353 57 39 35
-0.660639 0.0406822 -2.08145 -0.2805 -0.862361 0.421489 234 150 58
-0.638337 0.0429578 -2.1032 0.38117 0.603724 0.700162 205 131 57
-0.620133 0.0463797 -2.11436 0.596015 -0.555811 0.579517 159 90 38
-0.612072 0.0466948 -2.12314 0.677606 -0.328185 0.658137 139 72 35
-0.604488 0.0488319 -2.13013 0.628618 -0.403884 0.664618 140 72 37
-0.596383 0.0496928 -2.13542 0.56309 -0.43499 0.702647 141 73 41
-0.588981 0.0497314 -2.1384 0.622301 -0.511504 0.592541 137 72 40
-0.580542 0.049215 -2.13934 0.849889 -0.364216 0.380835 140 80 45
-0.539675 0.0343527 -2.09878 0.656701 -0.253173 0.710385 148 85 50
-0.529321 0.0292413 -2.08509 0.874248 -0.199094 0.442778 146 83 49
-0.533162 0.0372223 -2.10998 0.77539 -0.228543 0.588676 152 88 51
-0.505925 0.0291225 -2.0891 0.787665 -0.45151 0.419193 166 93 50
-0.497403 0.0292333 -2.07914 0.785636 -0.450128 0.424454 164 90 46
-0.491247 0.0238771 -2.06968 0.216069 0.667989 0.712113 155 83 44
-0.480925 0.0274467 -2.08051 0.1862 0.748879 0.636011 151 82 41
-0.470872 0.0285605 -2.07475 -0.381133 0.576345 0.722886 145 80 43
-0.439489 0.0210597 -2.06427 0.0130378 0.774364 0.632606 157 81 45
-0.429292 0.0253878 -2.08185 0.253569 0.717219 0.649075 164 93 49
-0.426654 0.0163989 -2.05535 -0.477886 0.602377 0.639349 150 78 43
-0.429222 0.0167891 -2.0592 0.0392458 0.748452 0.662026 153 81 45
-0.418959 0.0207213 -2.06707 0.0219043 0.746085 0.66549 160 86 48
-0.420789 0.0244878 -2.07222 -0.364672 0.669635 0.646995 154 79 43
-0.41119 0.0213329 -2.06823 -0.08605 0.72843 0.679695 166 89 51
-0.369916 0.0192626 -2.06915 -0.37243 0.719216 0.586535 170 78 40
-0.359655 0.014148 -2.05841 -0.300393 0.746949 0.593154 181 80 46
-0.360427 0.0178339 -2.06273 -0.32555 0.703481 0.631769 170 78 43
-0.360427 0.0178339 -2.06273 -0.32555 0.703481 0.631769 170 78 43
-0.360427 0.0178339 -2.06273 -0.32555 0.703481 0.631769 170 78 43
-0.348934 0.0187689 -2.07013 -0.134003 0.775091 0.617476 169 77 41
-0.349345 0.0108489 -2.05502 -0.0494731 0.74894 0.660789 175 83 44
-0.349051 0.0104831 -2.05468 -0.0931031 0.780366 0.618353 172 78 40
-0.338921 0.0155907 -2.06144 -0.102884 0.761322 0.640159 160 78 41
-0.329321 0.0129248 -2.05811 -0.143671 0.726914 0.671532 151 75 38
-0.326486 0.0123185 -2.05523 -0.136241 0.778329 0.612897 149 69 33
-0.31354 0.00694454 -2.04802 0.0425099 0.764594 0.643109 138 72 37
-0.299424 0.0117514 -2.06306 0.366369 0.480437 0.79684 140 76 44
-0.303727 0.0105723 -2.06145 0.355598 0.591922 0.723311 153 87 51
-0.281907 0.0101522 -2.05669 -0.134593 0.781251 0.609534 144 75 42
-0.269233 0.00806432 -2.06042 -0.24456 0.709054 0.661387 144 77 41
-0.247415 0.00469808 -2.05287 0.055521 0.765187 0.64141 160 78 40
-0.243427 0.00137564 -2.04943 -0.129457 0.769811 0.625006 165 82 45
-0.225643 0.00508292 -2.05068 -0.427464 0.63705 0.641437 177 82 46
-0.210469 0.00449863 -2.05051 -0.421746 0.644936 0.637328 172 78 41
-0.201038 0.00155821 -2.04245 -0.400882 0.659457 0.635933 171 80 45
-0.195355 0.000300556 -2.04756 -0.321176 0.741016 0.589696 169 77 43
-0.195355 0.000300556 -2.04756 -0.321176 0.741016 0.589696 169 77 43
-0.195355 0.000300556 -2.04756 -0.321176 0.741016 0.589696 169 77 43
-0.182044 0.00415775 -2.05682 -0.773751 0.496847 0.393004 166 76 44
-0.185148 0.00197832 -2.05551 -0.45143 0.636983 0.624871 167 75 40
-0.170595 -0.00108601 -2.05179 -0.419632 0.712202 0.562741 165 77 45
-0.169565 0.00438554 -2.06112 -0.398216 0.743132 0.537754 162 78 46
-0.160549 1.55018e-005 -2.05201 -0.56626 0.620138 0.542934 155 73 41
-0.14772 0.0027466 -2.06698 -0.504763 0.499262 0.704238 144 70 38
-0.147901 0.00361007 -2.06897 -0.632584 0.540365 0.554837 141 65 35
-0.140455 0.00211088 -2.05808 -0.574695 0.584814 0.572467 137 66 36
-0.1405 -0.00631465 -2.04817 -0.313343 0.75367 0.577752 148 71 40
-0.1405 -0.00631465 -2.04817 -0.313343 0.75367 0.577752 148 71 40
-0.1405 -0.00631465 -2.04817 -0.313343 0.75367 0.577752 148 71 40
-0.130593 -0.00729508 -2.04196 -0.0808287 0.776515 0.624893 157 80 48
-0.119403 -0.00230499 -2.04221 -0.0698117 0.773215 0.63029 152 78 46
-0.106964 -0.0052686 -2.03848 -0.0622961 0.759423 0.647607 155 76 44
-0.0924775 -0.0139988 -2.02516 -0.761968 0.452423 0.463377 124 54 27
-0.0665944 -0.0114426 -2.0351 0.306283 0.606953 0.733348 138 67 34
-0.0589167 -0.013866 -2.02623 0.429996 0.477259 0.766373 143 66 35
-0.0450954 -0.00979885 -2.03813 0.364568 0.543066 0.756419 134 65 32
-0.0445502 -0.00947379 -2.04017 0.135534 0.665564 0.733931 134 65 32
-0.0445502 -0.00947379 -2.04017 0.135534 0.665564 0.733931 137 65 33
-0.0283832 -0.0190127 -2.01302 0.203934 0.635261 0.744885 135 60 32
-0.0105577 -0.0197539 -2.02366 -0.146725 0.783756 0.603489 141 64 36
-0.000678309 -0.0203487 -2.02314 -0.0928721 0.75969 0.643619 138 59 31
0.0483261 -0.0204452 -2.02084 -0.40832 0.709365 0.574523 142 67 35
0.0554995 -0.0226427 -2.01743 0.298247 0.26658 0.916506 141 65 35
0.0698647 -0.022047 -2.02804 0.401594 0.422694 0.812436 152 72 40
0.0906675 -0.0222379 -2.03679 0.0722645 0.626393 0.77615 157 67 38
0.587175 0.051871 -2.72189 0.440202 0.225679 0.869075 252 120 76
0.667214 0.0499961 -2.76787 0.320404 -0.620694 0.715598 243 118 62
0.737614 0.0649949 -2.83909 -0.833029 0.505572 0.224633 241 121 60
0.738778 0.0500716 -2.80018 -0.995526 -0.0442235 0.0834985 239 116 57
0.751599 0.0577395 -2.80781 -0.991917 0.0789363 0.0993476 233 109 51
0.729466 0.040855 -2.74953 -0.995576 0.0323315 0.0882258 236 110 50
0.732445 0.041036 -2.75157 -0.9953 0.0327328 0.091142 236 110 50
0.740874 0.0496587 -2.75607 -0.991727 0.0857189 0.095553 232 110 48
0.740975 0.0494245 -2.75582 -0.991937 0.0844242 0.0945178 233 110 48
0.740874 0.0496587 -2.75607 -0.991727 0.0857189 0.095553 232 110 48
0.729702 0.0409073 -2.74994 -0.995514 0.0322129 0.0889581 236 110 50
0.746768 0.0358786 -2.69399 -0.999386 -0.0328277 -0.0122751 235 110 53
0.748275 0.0361998 -2.6965 -0.981885 -0.183863 0.0457885 235 108 52
0.764589 0.0389529 -2.6791 -0.981556 0.190709 0.013376 235 109 53
0.76274 0.0322131 -2.67591 -0.989698 -0.139002 -0.0342867 229 98 45
0.786207 0.0322839 -2.67467 -0.100007 0.64004 0.761806 232 98 49
0.803638 0.0249451 -2.66433 -0.083137 0.760894 0.643528 254 138 81
0.859805 0.0243214 -2.69386 -0.280733 0.799969 0.530319 254 141 82
0.812841 0.0187353 -2.64465 -0.159076 0.790624 0.591277 253 142 81
0.879969 0.0270201 -2.68762 -0.0482134 0.736761 0.674432 253 129 75
0.88032 0.0191779 -2.68668 0.00728339 0.703916 0.710246 250 124 69
0.920123 0.0234315 -2.69966 -0.457563 0.810615 0.365432 248 120 69
0.967321 0.0317395 -2.74846 -0.918227 -0.389088 -0.0739519 250 129 74
0.92019 0.0234406 -2.69975 -0.452526 0.811597 0.3695 248 120 69
0.964533 0.0313572 -2.7449 -0.914665 -0.397611 -0.0727509 250 129 74
0.92019 0.0234406 -2.69975 -0.452526 0.811597 0.3695 248 120 69
0.967321 0.0317395 -2.74846 -0.918227 -0.389088 -0.0739519 245 124 71
0.973693 0.0189013 -2.71951 -0.00877754 0.70631 0.707848 252 103 83
0.973079 0.0204277 -2.73268 -0.989461 0.019774 -0.143447 249 108 77
0.975993 0.0208031 -2.73635 -0.989446 0.0201748 -0.14349 249 108 79
0.973079 0.0204277 -2.73268 -0.989461 0.019774 -0.143447 249 108 77
-1.10745 0.205941 -2.94409 0.918327 -0.253923 0.303641 45 38 35
-1.09441 0.204568 -2.95557 0.479808 -0.596278 0.643612 57 43 32
-1.08398 0.210232 -2.96469 0.608722 -0.567561 0.554376 56 42 35
-0.659413 0.0329649 -2.08202 -0.112587 -0.812938 0.571364 234 152 59
-0.651709 0.0344551 -2.08367 0.923144 -0.0448398 0.38183 233 155 65
-0.645529 0.0369331 -2.09411 0.801822 0.12121 0.58514 189 118 50
-0.645622 0.0351087 -2.09288 0.0255158 0.729177 0.683849 171 101 39
-0.638587 0.035339 -2.0968 0.174111 0.683766 0.708625 130 69 32
-0.629399 0.0382177 -2.10228 0.143093 0.748199 0.64786 127 69 32
-0.620316 0.0383124 -2.11924 0.629677 -0.517593 0.579314 123 67 38
-0.612908 0.0371365 -2.1228 0.878171 -0.306019 0.367652 136 75 44
-0.603023 0.0420019 -2.14107 0.620656 -0.521192 0.585786 135 71 39
-0.536455 0.0239753 -2.07928 -0.46592 0.567266 0.679064 151 86 50
-0.533449 0.0229464 -2.07504 0.871208 -0.222052 0.437824 152 87 51
-0.533093 0.0227674 -2.07148 0.840786 -0.252886 0.478673 148 84 49
-0.532736 0.0245193 -2.0735 0.860044 -0.233012 0.453904 144 81 47
-0.532736 0.0245193 -2.0735 0.860044 -0.233012 0.453904 145 83 48
-0.490357 0.0142725 -2.06122 0.309456 0.708555 0.634182 165 93 53
-0.4804 0.0172055 -2.06242 0.0426525 0.708161 0.704762 153 82 45
-0.470738 0.0127962 -2.05719 0.0490938 0.710757 0.701723 156 83 45
-0.439455 0.0131047 -2.05305 0.0866254 0.771241 0.630621 149 78 42
-0.415562 0.0142367 -2.0627 -0.191347 0.471329 0.86095 150 80 44
-0.418877 0.00867306 -2.03653 -0.490738 0.51105 0.705694 152 84 47
-0.407098 0.0139992 -2.05967 0.136146 0.717416 0.683213 163 90 51
-0.396582 0.00865287 -2.05476 -0.0506727 0.698736 0.713583 154 79 42
-0.388508 0.00976863 -2.06187 0.0307629 0.708724 0.704814 161 84 45
-0.378763 0.0132788 -2.06521 0.281651 0.703732 0.652253 178 94 52
-0.384351 0.00540434 -2.0464 0.0172261 0.71152 0.702455 157 80 42
-0.370324 0.0108957 -2.05644 -0.445229 0.6903 0.570314 171 79 40
-0.374465 0.00968571 -2.05444 0.0152829 0.70968 0.704358 171 87 46
-0.363146 0.00708787 -2.03716 0.504344 0.32936 0.798223 180 91 50
-0.360168 0.0056772 -2.04493 0.0117437 0.778611 0.627397 179 83 45
-0.349121 0.0030901 -2.04488 0.0710182 0.766949 0.637767 164 77 39
-0.339108 0.00801457 -2.05094 -0.151116 0.758003 0.634504 174 85 48
-0.329738 0.00247008 -2.04195 0.240762 0.720859 0.64992 166 87 44
-0.329582 0.00532217 -2.04701 0.000651576 0.756262 0.654269 162 80 41
-0.309183 -0.000643713 -2.04727 0.283706 0.567521 0.772936 150 82 44
-0.302683 0.00287764 -2.05638 0.313664 0.615378 0.723135 150 83 49
-0.299839 0.00208619 -2.04242 -0.41138 0.724962 0.552446 140 71 42
-0.292391 0.00278878 -2.05852 0.261905 0.691233 0.6735 159 87 53
-0.269651 -0.00267508 -2.04786 0.405365 0.613263 0.677929 156 87 49
-0.248937 -0.00546084 -2.03469 -0.023141 0.782351 0.622407 155 80 41
-0.244069 -0.00616111 -2.03776 -0.286222 0.706244 0.647531 153 76 40
-0.233645 -0.000743374 -2.04769 -0.219913 0.708186 0.670903 166 79 41
